15.22,17.98,18.98,17.67,15.92,18.99,10.1,5.89,10.71,6.31,7.71,9.01,13.6,18.77,24.19,22.08,20.86,23.57,18.5,19.41,15.4,12.37,9.5,9.86,9.6,7.62,8.19,18.19,14.45,22.8,19.67,20.39,24.65,21.56,21.72,20.47,18.38,11.85,6.8,8.94,9.53,11.6,8.07,5.62,11.27,18.27,18.59,18.81,27.4,18.66,20.49,20.53,22.17,11.7,13.48,12.09,15.19,9.9,8.37,10.35,15.08,15.23,16.61,19.64,23.72,21.71,21.94,21.54,19.97,12.68,11.36,9.13,9.15,10.16,9.16,10.06,15.19,15.51,18.2,19.05,19.26,22.29,23.06,20.42,19.21,12.61,7.96,8.6,11.45,9.15,10.88,8.97,15.32,15.8,17.72,20.51,18.78,17.7,20.05,19.83,15.11,13.14,9.66,10.27,11,7.46,11.68,11.74,12.2,16.14,20.18,17.51,27.28,14.78,16.62,18.55,14.53,13.61,11.09,9.01,8.79,8.65,8.88,22.12,12.63,17.87,18.38,19.02,17.79,17.96,16.41,18.53,13.32,10.51,8.53,6.75,7.82,8.09,13.88,12.99,14.29,13.18,15.7,13.4,16.15,13.99,15.09,11.76,15.75,20.01,8.92,7.06,5.21,6.26,6.69,9.03,11.48,22.47,13,22.05,12.69,14.22,15.58,15.58,6.37,6.62,5.48,8.22,6.72,4.91,11.85,11.15,12.37,11.68,13.09,10.87,10.47,13.39,7.29,8.3,15.17,4.03,11.52,5.38,4.45,7.05,4.31,8.67,11.68,11.03,10.71,8.57
19.74,21.29,21.4,19.17,18.46,10.35,8.38,6.17,7.61,8.82,7.87,10.84,13.44,17.27,21.96,21.29,19.77,19.28,21.05,21.36,16.15,12.45,9.01,7.41,7.08,10.49,10.07,9.11,12.51,19.8,22.18,20.83,21.98,20.44,30.47,22.01,16.91,15.07,11.65,9.54,6.75,10.85,11.59,10.22,20.69,19.3,18.26,20.78,18.79,23.31,23.96,19.04,17.69,15.84,10.94,9.06,9.27,7.92,12.63,11.4,10.67,18.37,19.63,19.96,22.54,21.96,28.58,22.82,17.99,13.8,11.33,9.43,10.46,8.55,8.46,9.64,16.66,16.98,18.75,20.59,20.61,21.05,20.74,19.32,14.93,12.96,9.76,7.93,12.25,10.07,11.3,11.67,13.09,18.53,20.42,20.81,20.31,20.81,20.47,19.17,14.82,16.31,9.7,11.21,11.29,10.45,11.89,9.95,13.18,15.19,23.99,23.86,18.98,19.4,19.5,18.13,17.49,15.91,8.29,12.7,8.23,8.26,10.55,11.5,17.27,18.41,17.28,21.39,16.75,20.95,17.69,15.33,14.62,19.58,10.57,11.3,9.01,9.12,11.83,11.04,11.93,12.24,13.67,15.48,16.26,14.93,14.91,16.2,10.85,11,10.72,11.43,11.19,9.55,8.67,11.18,21.8,12.96,14.2,21.17,19.46,16.12,20.19,10.04,8.09,15.48,7.24,13.95,7.97,10.14,15.16,10.58,9.24,11.66,12.38,10.53,11.06,10.01,9.9,8.38,8.02,6.59,9.12,15.83,11.13,7.25,8.67,9.71,5.91,7.72,7.42,8.54
20.62,21.04,23.71,22.36,19.17,13.01,10.26,8.04,8.82,8.42,8.84,8.91,15.61,20.44,20.06,23.59,21.02,21.08,20.85,23.56,17.48,13.43,11.35,10.36,13.74,11.76,10.39,13.04,13.65,19.92,21.89,21.77,22.3,22.71,26.48,27.64,21.02,15.34,11.3,10.25,12.11,10.06,12.64,12.79,16.34,20.91,22.68,23.7,23.03,24.6,25.36,22.57,18.5,15.65,14.76,10.72,13.37,10.7,12.71,11.46,17.51,20.3,22.65,22.83,20.17,18.82,21.45,19.4,17.33,18.12,11.93,12.12,17.64,16.11,11.84,11.53,15.36,16.92,20.78,19.82,18.03,21.87,20.26,18.97,19.15,17.79,12.47,12.29,14.08,11.62,14.19,11.63,17.49,17.52,20.86,18.32,21.35,18.8,21.17,18.32,14.91,15.48,16.26,16.07,13.14,13.83,13.93,16.58,15.43,13.93,17.99,18.41,15.56,18.3,26.71,24.72,17.92,17.8,15.64,20.26,18.37,14.74,14.61,36,15.97,17.48,19.71,16.59,17.87,17.2,16.44,25.6,11.7,15.15,18.59,15.65,14.01,15.9,12.47,16.63,12.84,14.25,12.99,13.64,11.79,23.48,9.84,12.25,11.94,15.4,13.87,14.19,14.75,12.74,15.05,9.74,12.31,12.23,12.11,10.07,11.66,12.55,9.93,11.32,13.93,11.17,13.41,22.22,34.07,11.9,10.25,8.03,7.31,5.65,8.44,6.18,7.32,8.7,7.64,10.64,10.52,10.4,19.76,10.54,8.06,8.79,9.27,5.86,6.76,5.27,7.16,4.97
21.28,21.18,20.66,21.87,16.73,15.66,9.17,15.81,12.12,11.37,13.35,18.04,16.05,17.39,22.68,20.91,18.87,19.85,21.01,20.3,19.22,17.06,13.62,15.48,17.98,16.26,14.5,15.9,17.77,18.38,21.16,19.04,21.57,20.91,17.57,20.51,28.46,16.19,20.25,13.96,17.44,17.88,17.94,20.09,18.85,20.36,32.61,18.73,25.89,19.97,20.23,19.58,18.6,19.41,19.02,17.34,16.16,17.97,18.28,15.82,18.27,17.4,18.01,26.9,26.38,26.16,19.41,17.22,21.96,16.19,18.71,16.9,18.07,19.38,24.65,19.9,22.43,16.83,16.16,27.55,20.24,19.49,15.53,27.43,13.13,18.56,25.93,17.15,22.42,18.23,19.48,20.56,18.22,14.56,22.21,19.31,12.46,14.84,16.95,17.97,15.48,17.98,17.37,18.92,21.42,18.75,19.4,16.64,14.44,15.64,14.24,14.02,15.04,14.01,16.16,13.43,20.34,17.27,28.27,22.28,18.73,19.02,17.19,17.23,17.12,14.3,12.32,10.63,12.06,10.4,12.59,13.76,18.51,17.43,16.62,19.99,17.71,15.18,14.22,14.96,10.03,7.86,11.71,10.35,9.63,10.11,8.52,11.74,19.06,20.71,19,14.89,15.13,16.26,16.5,13.36,11.44,7.15,12.13,6.1,8.75,10.09,14.43,12.39,13.21,17.07,17.84,14.35,12.48,14.12,13.85,11.35,9.04,4.95,5.22,6.5,7.73,7.48,6.72,11.56,14.56,14.26,12.93,13.24,13.01,14.7,11.65,6.48,5.8,5.42,4.16,5.8
19.48,17.26,19.55,19.22,20.01,19.87,20.04,16.9,28.26,19.78,20.23,23.55,19.63,21.26,19.69,25.58,18.19,17.54,17.77,23.34,20.77,21.86,20.28,18.96,19.07,23,21.11,22.77,18.04,14.04,15.8,17.41,16.1,17.95,16.03,19.13,18.29,20.37,23.75,22.17,22.1,23.53,25.35,23.45,22.73,17.93,16.99,24.84,15.03,16.9,14.7,14.65,19.8,23.21,22.71,23.31,26.19,25.03,21.37,22.91,22.13,17.85,13.26,14.84,13.9,12.29,15.11,15.34,18.96,19.5,23.91,20.99,25.13,20.77,21.24,23.31,23.68,16.36,13.67,15.04,12.63,15.52,19.89,14.1,15.59,24.09,22.63,24.11,22.59,22.77,21.82,24.21,21.8,15.25,12.98,13.56,16.21,18.4,10.76,15.77,30.88,29.22,21.07,25.67,29.08,22.01,22.87,20.03,15.41,16.69,12.31,10.47,11.99,10.82,11.8,12.4,14.16,20.79,20.26,22.91,21.21,19.52,21.04,20.5,14.5,9.32,11.01,6.33,9.06,11.84,10.64,9.46,14.36,19.4,19.1,21.82,20.78,20.6,29.03,19.69,14.4,10.71,9.54,8.36,8.85,7.57,9.91,8.97,15.52,16.65,20.14,17.71,20.24,19.25,17.33,16.22,12.24,7.22,7.98,6.18,6.31,7.63,14.72,9.59,13.78,15.87,14.45,15.14,17.09,25.17,14.58,11.16,17.55,6.69,16.11,4.55,6.69,6.17,10.56,17.24,13.67,11.85,12.91,11.84,18.12,15.94,9.59,7.12,11.49,5.24,4.61,5.89
15.36,12.91,13.64,12.91,18.34,23.12,25.02,25.43,26.48,25.84,24.79,26.25,21.9,14.39,15.96,13.32,12.25,11.71,10.49,11.97,20.35,25.62,24.86,21.8,23.8,26.49,25.49,24.61,22.14,17.57,15.85,11.6,10.9,9.46,9.83,13.37,16.63,20.77,24,26.07,25.56,27.62,24.76,25.57,23.27,25.01,11.89,10.46,15.62,9.14,12.69,14.41,18.96,23.31,22.65,25.1,24,27.2,24.92,31.77,22.1,13.25,9.46,14.67,13.18,13.28,10.72,13.79,15.19,22.56,24.8,24.72,23.97,25.45,20.96,23.11,20.36,21.14,13.22,10.68,12.32,10.02,11.34,14.35,15.57,21.96,23.77,23.82,26.01,22.65,26.5,32.77,29.79,17.16,10.31,12.17,14.78,14.18,11.08,21.42,20.01,18.81,22.63,22.97,24.93,25.03,24.19,23.22,19.02,14.15,11.3,11.37,10.7,12.2,14.08,22.08,16.84,20.65,23.63,22.79,24.95,22.3,22.16,18.8,18.78,11.55,10.35,7.63,9.73,10.55,10.02,9.62,21.39,21.06,21.42,24.05,22.05,21.7,19.95,21.44,13.18,10.76,8.27,8.78,8.65,8.87,8.22,8.63,13.7,16.39,27.86,21.22,21.07,16.34,19.35,15.78,11.4,5.87,7.39,6.73,8.54,4.32,8.02,12.37,13.99,18.44,18.45,15.69,18.15,19.15,15.3,16.77,16.24,6.88,6.08,5.27,5.8,7.24,5.85,14.98,14.8,17.57,15.35,16.4,15.85,14.61,11.44,9.17,4.6,4.24,4.28,5.43
9.89,13.77,10.26,13.04,20.31,22.2,25.88,26.87,25.65,26.99,26.15,24.26,21.06,15.07,15.12,10.45,12.62,11.49,18.87,11.33,21.48,22.56,22.21,24.42,27.52,26.57,27.22,23.1,22.49,18.6,10.08,10.34,9.56,11.26,13.27,16.55,14.7,23.95,25.78,28.36,29.74,26.23,25.91,27.63,24.93,16.84,14.46,12.41,13.76,12.27,11.11,12.02,18.61,23.07,23.91,26.97,25.77,27.3,26.18,25.65,23.12,18.41,20.36,9.24,12.1,12.21,12.44,12.23,18.13,24.54,25.79,23.72,24.1,25.42,24.03,21.42,22.15,18.66,12.22,9.93,11.72,10.13,11.12,14.87,16.47,22.41,25.48,26.99,23.87,26.23,26.52,23.4,21.33,15.62,11.67,12.96,11.96,11.95,10.47,13.3,17.15,23.73,23.87,24.54,21.79,23.72,25.21,22.84,27.19,15.88,11.02,10.99,12.33,12.01,10.43,11.75,18.77,22.37,23.35,24.39,25.48,24.37,22.25,22.75,20.74,11.11,12.76,17.46,10.68,10.51,11.25,14.04,17.36,20.37,22.93,22.48,22.16,23.27,19.87,22.19,15.99,12.44,11.33,10.58,6.35,9.87,11.28,14.71,16.19,28.81,19.32,20.78,20.15,21.03,19.09,19.9,12.91,8.35,6.5,6.34,16.92,6.76,7.44,10.73,15.2,20.58,18.6,25.62,18.94,16.89,18.03,11.28,7.24,5.86,7.27,13.05,6.51,8.99,9.84,11.89,12.33,16.62,13.86,14.63,16.74,15.7,11.59,8.7,7.74,5.84,7.76,5.53
13.69,10.21,9.94,11.34,21.03,21.38,26.95,29.46,25.84,27.22,28.22,28.08,24.45,17.12,13.55,11.41,9.76,11.11,10.57,12.7,19.6,23.75,35.06,24.8,27.88,27.42,27.91,26.61,22.1,22.03,12.14,13.02,10.63,11.91,13.33,11.98,25.65,25.23,27.82,26.41,28.67,28.94,27.75,24.7,26.08,20.11,16.64,12.79,10.9,10.86,23.09,15.53,18.6,25.66,25.05,27.28,27.62,26.63,26.79,29.71,23.09,23.17,13.92,12.96,15.22,12.63,11.02,13.45,19.3,22.94,30.58,27.26,30.77,27.18,27.02,25.31,25.01,20.75,13.17,14.43,18.19,11.34,13.18,12.77,19.64,22.27,22.4,27.05,25.83,26.73,27.42,23.16,24.87,16.44,15.21,12.44,10.97,11.11,14.33,12.29,20.36,23.55,26.45,26.57,25.88,25.39,23.29,24.71,20.56,17.14,12.16,13.76,10.02,10.67,10.65,10.62,16.76,23.28,24.29,23.48,21.97,22.83,21.84,23.47,19.95,14.56,16.42,10.28,11.81,12.65,10.31,11.86,20.39,23.02,24.31,25.52,23.62,23.17,24.49,22.37,20.27,11.75,14.57,15.12,10.35,8.99,8.47,13.39,18.64,22.52,20.59,19.91,22.74,22.09,21.9,18.94,18.69,9.23,8.43,8.99,6.88,10.65,7.32,12.1,14.58,15.07,20.64,19.63,16.11,20.46,18.13,11.64,12.18,9.52,8.96,7.22,8.43,8.71,16.55,11.25,17.38,17.37,14.42,18.31,17.57,16.06,17.08,9.65,6.09,5.78,27.55,7.19
10.62,18.14,14.47,14.06,20.4,25.24,29.14,25.48,26.85,27.75,28.72,26.9,24.49,19.75,14.18,11.84,11.28,13.5,10.31,14.07,19.17,26.19,28.69,28.53,28.1,29.85,26.45,26.77,27.05,21.24,14.96,15.98,14.74,14.02,12.76,12.41,18.51,25.24,28.1,27.97,25.72,27.69,27.49,26.64,25.89,23.92,16.33,13.49,14.5,12.16,10.63,16.89,18.9,24.54,24.93,27.04,34.49,28.88,25.61,24.99,27.9,22.24,15.24,14.55,14.68,11.86,15.34,15.65,20.07,24.65,29.11,25.59,27.3,27.26,28.01,28.06,24.85,22.17,15.51,21.5,13.7,12.57,13.08,13.44,17.91,23.1,26.66,26.41,28.28,26.68,27.23,24.89,24.95,19.38,25.48,13.4,9.11,12.42,15.78,19.79,17.15,21.7,24.47,25.79,26.78,25.66,25.46,29.16,23.61,19.13,15.33,11.43,12.1,12.7,11.98,13.9,19.63,23.23,26.18,26.16,25.32,25.35,29.96,24.95,19.8,15.89,12.13,13.58,12.28,13.2,12.55,15.6,19.99,23.88,24.59,24.87,25.95,23.68,24.67,22.04,15.75,15.72,9.97,10.93,7.28,11.48,9.9,17.37,15.58,22.03,24.13,18.21,18.91,21.5,22.48,20.21,14.41,11.11,10.2,10.93,7.39,10.96,14.93,17.58,18.37,21.01,23.74,20.86,19.92,19.82,18.11,15.56,8.92,9.16,9.45,8.39,7.86,10.43,11.58,16.01,25.49,16.51,27.61,16.19,17,16.23,16.88,14.18,7.1,9.06,5.42,4.74
13.36,20.1,15.54,13.5,21.32,27.66,27.95,29.54,30.15,29.71,28.72,28.28,27.51,20.12,14.2,14.27,14.01,11.55,11.88,11.5,23.2,27.05,29.05,28.41,28.47,28.91,28.45,27.83,27.22,22.71,25.59,14.13,12.82,15.57,11.91,16.77,21.61,28.43,27.43,29.17,28.7,28.99,28.3,28.4,28.13,23.72,17.62,14.7,17.27,14.11,23.77,17.69,21.8,27.48,27.74,27.19,27.07,29.54,27.61,28.75,26.28,24.25,15.24,15.35,15.93,14.63,12.03,14.44,18.82,26.88,27.06,27.44,28.84,29.02,28.69,27.51,25.23,27.62,17.69,14.51,12.83,15.74,14.6,27.59,21.01,26.47,26.96,25.01,27.41,27.26,27,27.21,23.46,20.59,15.5,13.67,14.93,21.36,13.09,15.54,20.09,26.48,26.99,25.01,26.33,30.55,26.2,26.17,24.55,22.29,15.74,16.25,15.06,16.16,15.2,18.96,17.38,22.99,26.79,24.86,26.88,24.98,24.53,26.18,21.17,18.66,16.41,22.79,13.34,12.48,15.35,16.04,19.71,21.8,21.99,24.06,23.48,23.84,23.62,21.34,17.27,17.46,14.01,13.88,13.09,13.75,14.09,17.36,16.99,21.81,21.96,18.33,17.85,19.59,17.88,19.47,12.87,13.77,13.7,16.09,10.02,13.3,13.75,16.55,14.75,17.83,18.28,15.77,18.53,19.32,15.67,17.5,13.34,14.2,14.09,19.06,24.18,16.05,16.54,11.59,14.57,17.7,15.84,15.23,13.56,15.22,12.77,15.33,15.1,12.26,15.44,16.63
13.1,16.02,14.12,22.61,23.76,28.47,27.99,29.22,29.2,29.07,26.92,29.02,25.62,19.94,15.79,15.93,16.93,15.9,16.87,14.47,24.15,26.71,28.82,29.53,30.14,29.56,28.35,28.47,27.33,25.93,17.55,16.66,17.14,13.77,18.83,18.15,25.05,28.83,28.11,29.77,29.62,29.8,28.76,30.01,28.24,22.77,15.83,17.25,17.52,17.47,16.6,17.92,22.67,25.69,27.65,27.72,26.93,27.09,25.34,28.15,27.54,25.34,20.77,22.7,19.1,19.8,20.5,19.22,22.56,24.46,27.29,27.47,29.68,27.93,27.03,25.9,27.52,23.38,21.32,20.29,20.11,22.48,18.4,21.64,22.56,23.08,25.23,27.79,26.9,23.31,25.94,25.82,22.46,24.25,21.75,22.74,20.39,21.43,20.89,21.72,21.5,24.79,24.2,23.58,23.9,24.72,25.45,24.02,22.87,23.18,22.88,22.61,20.73,20.72,23.23,21.5,21.11,20.41,22.64,21.51,22.29,23.69,23.21,22.34,20,24.12,22.27,24.41,23.61,21.21,22.59,20.99,20.53,19.98,23.31,21.67,22.09,21.33,20.97,20.19,18.49,19.49,18.68,19.16,21.99,21.01,20.9,21.14,18.41,18.76,16.81,18.59,17.17,16.22,17.93,16.94,21.19,19.26,21.01,19.76,20.36,35.14,16.67,18.59,15.84,15.72,16.17,13.66,13.37,14.5,15.98,15.28,19.7,21.36,20.41,18.54,18.22,16.61,18.05,15.29,12.77,13.25,12.72,13.16,17.28,11.33,12.51,16.29,16.02,17.32,16.93,18.77
18.36,16.36,20.6,19.48,31.2,28.11,28.72,27.96,29.23,27.23,27.12,26.86,26.72,22.26,22.19,21.84,19.52,22.02,20.79,20.78,25.58,26.89,28.07,28.15,27.25,27.8,27.74,27.52,28.9,24.14,23.22,24.28,23.23,30.92,24.92,32.97,26.96,27.96,28.5,28.09,26.03,25.86,29.3,29.46,27.81,29.23,23.55,26.51,26.14,25.23,25.84,25.58,26.25,25.39,28.1,30.57,25.65,26.06,26.96,26.47,28.08,25.34,27.72,23.86,29.41,27.9,26.18,26.74,25.44,25.71,27.25,26.3,25.4,26.36,25.49,23.26,26.98,26.16,27.61,25.85,25.78,26.57,24.94,24.98,27.7,24.41,22.89,23.53,22.44,21.53,23.59,24.22,23.25,24.74,26.38,26.93,26.76,26.84,26.56,25.73,25.75,23.31,24.12,20.43,22.01,18.92,21.18,21.18,23.49,25.62,26.46,34.09,26.4,30.48,28.44,25.34,26.1,22.59,19.09,17.54,16.87,18.14,16.53,21.17,22.26,25.55,28.97,27.43,25.61,25.9,26.21,24.44,20.28,18.67,16.11,17.46,15.33,17.75,14.93,18.61,30.19,23.38,26.84,24.28,22.07,25.61,25.49,27.78,23.43,14.54,15.05,13.67,14.38,10.11,14.42,17.83,20.47,22,21.97,23.35,23.43,22.1,24.18,18.52,16.47,11.58,9.69,12.28,9.98,9.64,12,18.5,22.91,25.32,21.19,21.6,21.69,21.18,19.7,17.19,13.25,8.64,12.44,6.59,6.96,9.83,12.78,19.19,17.93,21.73,19.88,20.91
25.08,25.35,39.95,27.53,28.51,25.76,25.98,25.78,25.97,26.07,25.26,25.05,25.6,27.44,26.32,29.31,27.27,28.18,27.3,28.09,28.41,27.39,25.65,25.3,26.27,25.95,24.83,26.15,27.05,27.86,29.31,29.12,28.57,27.52,29.74,29.16,28.86,24.48,25.77,26.95,22.84,25.67,23.69,25.21,26.8,28.78,28.81,30.05,28.55,30.23,28.54,29.34,27.32,24.24,21.74,20.75,20.22,22.08,20.63,20.89,25.84,27.81,28.37,28.99,28.66,28.01,29.46,28.46,27.28,33.88,22.43,18.59,19.55,23.44,17.71,19.37,24.89,30.09,29.21,26.97,29.69,29.5,29.31,28.83,27.01,23.99,20.95,19.52,19.09,18.49,22.1,20.68,23.81,26.81,30.55,30.18,28.4,29.24,28.36,37.76,27.14,20.37,17.44,18.61,15.55,17.99,18.71,17.24,22.84,26.36,28.82,28.6,28.44,28.2,27.37,29.06,23.68,22.42,16.79,16.64,15.39,12.27,15.19,19.79,24.41,27.11,26.59,29.28,28.3,24.72,27.19,25.6,24.85,17.75,15.22,13.67,15.52,12.86,11.5,18.93,22.85,24.54,27.04,26.93,24.7,25.71,27.66,24.98,20.68,13.61,13.33,12.01,11.56,12.25,14.52,17.65,27.96,25,25.24,25.31,25.81,24.31,24.58,20.81,18.96,12.2,10.51,8.61,10.9,10.43,13.4,15.69,23.59,32.46,23.27,25.6,23.58,23.74,23.09,16.86,13.2,12.2,9.04,6.03,7.12,14.67,13.56,19.84,26.81,19.76,21.67,23.52
31.24,29,30.19,29.63,27.99,25.4,20.95,20.01,20.07,21.27,18.71,21.29,24.83,28.87,30.23,28.57,30.09,29.99,30.65,30.27,28.41,26.2,22.68,19.5,22.91,20.69,19.9,21.32,24.9,29.51,31,30.38,30.01,30.5,30.28,30.6,30.19,27.25,22.28,17.96,19.31,17.38,19.43,20.84,24.75,29.67,29.5,30.67,31.12,31.22,29.85,30.81,30.44,28.98,21.36,15.86,13.35,24.57,18.21,16.94,29.33,28.84,29.46,29.47,30.61,30.2,30.64,29.86,31.14,29.14,18.41,19.19,16.98,17.52,19.51,17.22,26.28,28.43,30.28,30.04,30.97,30.12,30.3,29.83,29.13,26.61,20.68,16.74,16.93,16.1,16.03,15.54,25.14,30.24,28.14,29.47,30.47,29.68,29.99,29.46,28.94,23.19,18.68,20.75,15.97,16.43,13.95,15.81,23.47,28.51,28.78,29.82,28.68,27.48,36.07,29.28,25.9,22.58,19.99,17.67,16.66,14.99,15.16,21.66,23.26,28.83,28.39,30.31,32.33,28.95,29.8,28.29,23.05,17.51,14.97,14.86,16.08,15.64,12.22,17.31,21.43,27.07,26.24,25.08,26.7,28.58,27.96,27.27,19.52,13.87,12.58,13.72,12.45,11.37,13.61,28.19,32.07,24.65,25.88,24.12,26.77,26.77,26.22,22.06,15.94,15.69,10.84,10.21,13.21,11.17,13.3,19.13,24.29,29.39,24.14,24.96,24.7,25.27,20.9,15.32,19.58,10.74,7.45,8.52,7.68,12.43,12.72,22.03,23.9,24.24,22.87,22.07
30.61,30.47,31.04,30.15,29.68,23.86,21.64,18.52,17.74,17.25,18.64,18.92,38.61,30.11,29.8,30.51,29.67,30.2,31.16,30.43,29.34,23.99,20.08,18.33,16.91,14.53,19.1,19.37,25.23,35.05,30.88,30.59,30.86,30.95,30.85,31.01,30.47,29.13,23.89,21.31,17.51,17.09,18.25,19.3,24.18,29.27,31.17,30.81,30.58,30.02,31.47,31.56,29.89,28.23,22.34,18.67,18.28,18.63,17.39,18.26,25.79,29.38,29.82,29.56,30.94,30.95,30.6,30.51,30.7,27.24,21.39,19.48,16.64,18.93,17.33,17.29,23.6,28.34,29.22,29.45,30.23,29.87,30.84,30.2,27.94,26.47,20.1,17.58,19.57,18.9,16.03,17.28,24.31,28.37,29.12,29.52,30.01,29.16,29.16,28.7,28.79,23.98,19.21,18.69,17.72,15.04,14.71,20.68,23.63,29.14,30.07,29.59,30.23,30.17,29.96,30.31,28.52,24.47,17.72,15.37,15.72,13.72,16.84,17.97,22.75,26.86,29.3,28.47,29.98,29.75,30.42,36.78,29.67,26.64,15.18,16.93,11.57,11.89,16.39,17.49,25.46,27.59,28.03,28.37,29.23,27.31,27.21,29.9,22.98,16.27,11.8,13.48,13.61,15.14,13.3,19.91,22.05,27.87,25.28,27.68,26.6,24.71,24.22,23.32,16.43,10.88,12.44,11.54,11.82,10.51,13.19,22.58,24.71,26.2,26.54,27.58,26.39,26.39,23.67,16.51,14.6,8.28,10.1,14.38,10.27,8.75,15.52,18.86,22.73,23.36,22.1,22.65
30.73,30.83,31.39,30.99,29.39,28.37,21.81,14.86,18.94,19.46,17.13,18.23,26.98,31.01,30.48,30.24,30.71,31.01,30.92,30.58,29.19,24.57,23.31,18.86,17.66,19.07,19.9,17.85,24.31,28.9,30.93,30.74,31.31,30.61,30.63,30.97,30.29,27.44,24.06,19.31,20.5,17.04,19,21.2,27.04,30.37,30.8,30.8,30.93,31.37,30.73,30.99,31.16,26.95,20.14,22.47,18.98,19.86,18.79,18.88,25,30.17,30.86,30.71,30.57,31.2,29.98,30.52,29.34,26.5,21.98,19.36,18.48,20.18,19.19,20.49,24.25,27.89,29.78,31.4,30.54,30.98,31.08,30.5,30.43,26.19,21.2,16.56,18.58,17.29,19.67,22.91,26.57,29.27,30.89,29.96,30.53,30.03,31.89,30.07,28.32,26.96,21.84,14.97,20.9,18.48,19.16,20.43,25.06,28.43,30.82,30.4,29.69,29.67,29.95,29.89,28.16,24.34,20.44,15.51,17.39,19.45,22.5,16.12,25.08,28.6,29.59,30.42,29.59,28.37,30.28,29.23,25.31,22.52,16.69,13.78,14.93,14.02,16.32,17.95,26.3,27.75,28.54,27.28,29.04,30.22,29.22,26.86,23.85,25.16,11.83,15.2,15.44,11.67,15.23,19.33,26.09,28.29,27.78,27.72,27.79,25.92,25.94,24.43,19.04,14.58,14.37,11.87,12.5,12.64,15.8,21.27,24.64,27.8,27.12,24.41,26.48,25.19,25.59,23.92,14.02,12.15,11.73,9.59,10.13,9.4,15.64,29.6,25.08,22.97,22.75,20.39
30.9,31.29,31.02,31.08,29.25,27.55,21.25,17.54,18.1,20.16,20.78,20.43,28.29,30.86,31.4,31.2,30.91,31.18,31.12,31.1,30.35,26.58,21.12,20.95,19.61,21.38,17.73,18.62,24.99,30.45,29.85,31.07,31.25,30.78,31.18,30.96,30.89,28.55,24.02,21.43,20.95,22.05,21.71,20.55,28.16,30.43,30.84,31.01,30.68,30.94,30.85,30.91,30.4,28.17,24.84,17.77,19.9,17.27,21.46,24.19,27.33,30.51,30.03,31.49,30.21,30.59,30.41,31.27,30.16,28.74,22.53,20.64,20.84,20.67,20.51,20.72,23.28,30.49,31.26,31.04,31.15,30.59,31.13,30.93,30.01,27.69,19.85,21.32,19.92,20.61,20.33,23.06,26.76,28.97,29.67,30.72,30.46,29.22,31.03,30.36,29.65,27.68,22.26,18.72,19.21,20.38,16.46,22.52,25.12,29.25,30.82,30.29,31.16,30.37,30.46,30.07,28.88,29.51,20.14,14.61,19.31,18.4,17.36,19.96,25.29,29.41,30.33,30.57,29.64,31.07,29.64,30.53,27.03,21.74,27.86,17.1,17.81,19.1,18.36,22.75,26.74,28.17,29.54,28.93,29.99,29.66,27.92,26.16,24.43,17.27,16.42,15.46,16.5,12.53,14.26,19.29,24.41,28.47,27.96,25.86,27.37,27.9,27.64,25.24,20.38,14.57,14.59,12.03,12.72,9.48,14.69,19.94,24.43,25.33,27.96,27.09,24.53,26.37,21.41,19.82,15.53,14.35,13.49,19.64,13.68,11.6,15.66,23.26,23.59,27.01,24.35,20.85
31.57,31.11,30.94,31.59,31.11,26.46,24.53,23.27,23.71,20.96,22.17,23.17,25.99,31.04,30.35,31.25,30.81,30.95,31.3,31.54,30.21,29.13,20.25,22.5,21.44,22.34,20.75,24.15,36.36,30.91,31.23,30.88,31.37,31.2,31.2,31.04,30.39,29.91,24.61,22.38,25.13,21.96,21.46,22.11,27.91,30.14,31.43,30.81,31.04,30.98,30.94,31.22,31.59,28.49,23.88,20.98,22.11,20.68,23.03,21.62,27.15,30.23,31.38,31.12,30.46,30.62,30.3,30.46,30.13,29.28,24.1,21.44,21.18,19.93,24.02,22.66,26.84,29.85,31.17,31.11,30.7,30.94,30.58,30.88,30.72,28.43,23.76,21.84,21.39,19.8,23.02,22.69,28.62,29.07,30.52,30.87,30.99,30.41,30.8,30.39,29.84,28.75,24.35,23,22.89,21.22,20.66,23.91,28.27,30.45,30.72,29.53,30.74,30.76,30.85,30.17,29.96,27.95,28.69,22.09,20.85,22.57,23.51,24.55,27.75,29.41,29.76,30.28,29.79,29.65,30.07,29.18,27.68,26.38,24.97,24.33,22.56,25.52,20.1,25.9,24.07,27.59,29.91,27.58,28.1,26.9,25.97,27.18,24.75,22.29,23.33,22.83,21.77,23.03,22.94,24.09,28.55,26.44,25.36,25.05,26.15,26.79,24.05,25.84,22.22,23.15,23.84,23.36,23.94,21.27,21.93,23.73,23.71,23.55,27.47,24.64,21.58,24.5,22.92,24.89,27.21,21.8,20.27,20.52,19.97,22.51,21.23,20.4,20.19,21.17,21.59,18.84
31.39,31.34,31.27,31.35,31.31,29.36,25.4,23.66,20.06,22.22,21.55,21.98,29.66,30.87,30.8,31.19,31.29,31.1,31.15,31.41,30.6,30.97,26.93,21.92,21.24,19.59,25.11,26.46,27.93,30.25,30.61,31.2,30.83,31.46,31.04,31.26,30.41,28.48,23.57,25.43,25.58,25.86,25.49,24.97,28.9,30.6,31.71,31.23,30.35,31.05,31.45,31.1,30.86,29.07,26.79,27.13,24.42,26.7,27,24.93,27.84,29.23,30.84,30.82,30.49,30.59,31.03,30.44,30.8,30.04,28.34,25.93,28.7,27.56,28.29,27.44,29.16,29.19,30.92,30.59,30.22,29.84,30.62,30.19,30.12,29.19,29.54,30.74,28.39,26.96,28.55,29.02,30.17,30.34,29.87,30.14,30.15,30.13,30.6,29.77,29.7,28.85,28.22,29.67,26.23,28.35,28.92,28.71,28.95,29.38,28.74,29.79,29.95,29.53,30.3,30.28,28.87,29.65,28.62,27.94,28.99,28.75,29.12,27.85,29.44,29.9,27.92,26.45,29.49,26.3,28.41,25.69,27.58,27.63,30.05,26.79,27.09,28.36,28.76,27.57,28.9,27.67,26.6,25.65,27.81,28.15,22.62,24.5,24.75,27.55,27.96,28,26.6,29.76,28.39,27.51,23.4,20.78,21.2,26.4,23.95,23.9,23.88,26.21,27.69,28.04,27.99,27.62,28.11,27.47,26.78,23.22,20.29,17.61,19.23,15.93,18.25,18.08,18.22,25.06,27.84,26.27,24.74,26.03,27.27,25.72,24.18,24.32,17.26,13.81,16.59,16.35
31.09,31.25,31.3,31.26,31.4,30.55,25.62,24.96,28.09,27.04,28.17,29.53,30.11,31.19,30.98,31.31,31.23,31.28,31.21,31.23,30.47,30.84,29.61,29.21,28.99,29.14,29.2,29.28,38.89,30.42,30.74,30.97,31.02,30.74,31.03,30.98,31.12,30.65,29.5,30.31,30.6,30.26,31.17,30.02,30.9,30.75,30.87,31.18,31.08,30.7,29.86,30.91,30.73,29.92,30.7,30.08,29.73,30.96,29.8,30.27,29.76,29.37,30.58,30.58,30.6,30.55,29.42,30.48,29.91,29.62,30.27,30.49,30.71,30.55,29.92,30.09,30.08,30.17,30.23,29.84,28.86,29.46,30.14,28.8,30.6,30.26,30.89,30.32,31.05,31.02,30.98,30.28,30.86,28.34,29.87,28.3,28.14,29.44,28.04,27.67,30.34,28.73,30.51,30.63,29.62,34.09,30.7,30.75,30.72,28.98,28.06,27.26,27.21,27.38,28.01,26.65,28.03,30.02,30.13,30.58,30.79,30.72,31.14,30.08,29.87,30.02,25.53,25.66,23.4,25.13,25.34,24.24,26.61,29.82,30.4,29.8,30.15,31.41,30.36,30.65,28.98,25.77,22.01,21.21,20.54,21.75,22.59,25.5,27.91,29.97,30.63,30.28,30.72,30.65,29.56,29.79,24.68,20.98,17.46,16.83,18.4,16.11,16.19,26.52,29.04,29.65,29.47,29.74,28.43,37.37,28.76,25.18,19.6,15.74,13.1,13.75,12.36,20.16,16.61,23.87,30.03,30.07,29.71,28.24,28.34,27.94,23.79,21.15,12.76,11.73,13.42,10.53
30.57,30.46,30.57,31.08,31.26,30.1,30.04,31.03,31.28,31,30.8,30.75,31.05,31.06,30.85,30.52,30.81,30.18,30.04,29.43,29.32,30.61,30.82,30.8,31.16,31.3,31.32,30.99,30.67,30.44,30.11,30.47,30.73,29.89,30.66,30.83,30.34,31.3,31.03,31.5,31.11,31.07,31.39,30.89,30.65,30.62,30.13,28.81,29.76,29.47,28.51,29.78,30.94,30.57,31.17,30.89,31.36,30.88,31.09,31.26,30.88,29.81,28.82,27.67,29.16,29.08,27.27,27.64,28.49,31.14,30.65,30.79,30.98,31.01,30.97,30.6,30.55,30.72,28.32,25.87,25.45,26.23,25.87,26.51,29.17,30.13,31.02,31.21,30.74,30.58,31.32,31.22,30.49,29.8,25.77,24.19,23.04,24.86,23.87,23.49,29.16,31.09,30.89,31.04,31.02,31.13,30.67,30.98,30.87,29.76,26.57,30.26,22.56,22.33,24.61,23.18,29.57,30.96,31.04,30.85,31.02,31.12,31.22,31.12,30.45,27.89,25.39,23.06,21.9,21.94,23.68,23.46,27.9,28.98,31.05,31.14,31.06,31.01,30.67,30.81,30.21,23.84,21.8,18.67,21.27,19.35,22.25,25.36,27.91,30.23,30.32,30.47,30.09,30.54,30.56,30.45,27.01,19.24,18.26,17.33,16.93,15.67,19.88,21.39,28.87,29.82,30.74,29.93,29.89,29.59,29.54,28.13,20.92,17.17,16.18,12.45,15,16.44,18.43,25.24,29.15,29.33,29.78,29.98,28.06,27.97,26.28,22.49,13.6,16.6,13.49,11.96
28.93,27.51,27.76,29.1,29.72,31.11,31.04,31.24,31.19,31.18,31.5,31.25,31.43,30.44,28.69,27.34,27.51,27.59,28.14,27,30.2,31.05,31.46,31.33,31.59,31.33,31.41,31.23,31.28,30.85,29.29,28.25,26.98,26.49,26.47,26.53,28.48,31.05,31.18,31.34,31.32,31.26,31.48,31,31.21,30.6,30,25.27,24.77,25.31,25.71,23.93,29.1,31.09,31.06,31.05,31.53,31.2,31.44,31.07,31.26,30.71,27.67,26.25,23.74,27.74,24.54,25.65,28.01,30.99,31.16,30.96,31.13,31.02,30.9,31.21,30.94,30.25,28.13,25.55,24.99,32.85,23.51,25.16,28.61,29.73,31.26,30.95,31.16,31.23,31.18,31.13,30.8,30.69,27.04,21.7,21.58,24.92,24.73,24.21,30.09,30.46,31.03,31.14,31.07,31.11,31.09,31.1,30.68,28.44,24.27,24.78,19.96,30.8,24.93,23.51,27.01,29.92,31.02,31.08,30.89,30.92,30.94,30.84,30.43,29.69,23.56,22.27,23.3,21.03,22.36,24.11,29.24,30.49,30.64,31.13,31.03,30.63,30.82,30.92,29.82,26.63,27.07,20.15,22.69,19.47,21.62,22.99,28.86,30.65,30.7,31.25,31.03,31.05,30.04,29.56,28.02,20.43,18.2,17.44,17.15,21.18,19.34,25.69,29.01,29.43,29.28,29.52,29.78,29.48,29.98,28.76,19.87,13.99,17.25,16.84,16.38,17.57,22.83,27.6,28.98,30.75,28.8,29.8,27.2,28.83,34.98,23.28,15.63,16.01,14.57,15.76
27.3,24.65,22.51,25.27,29.82,31.36,31.26,31.42,31.17,31.49,31.53,31.27,31.33,31.02,28.31,24.92,25.88,27.08,26.6,24.14,30.52,31.41,31.38,31.31,31.19,31.15,31.09,31.09,31.37,30.09,26.57,24.61,26.41,25.06,26.49,27.03,29.91,31.05,31.11,31.06,31.17,31.18,31.54,31.32,31.21,30.45,28.34,27.59,26.36,27.83,27.06,27.56,30.25,31.08,31.27,31.35,31.38,31.05,31.37,31.42,31.23,30.87,29.08,26.6,24.7,27.41,26.74,27.46,28.5,30.27,31.18,31.16,31.31,30.98,31.08,31.37,30.96,30.78,26.95,25.03,25.89,30.03,24.73,24.95,29.03,30.86,31.19,31.21,31.13,31.13,31.19,31.15,31.18,30.28,27.24,32.1,31.94,22.7,23.67,25.09,28.54,31.04,31.24,30.91,30.96,31.03,31.08,30.74,30.54,30.21,26.05,24.07,25.42,23.55,25.88,23.35,29.82,30.57,30.94,31.01,31.03,31.03,30.95,30.86,30.86,29.49,24.3,22.99,23.58,23.5,22.91,24.58,30.66,31,31.11,31.14,30.93,30.88,30.65,30.57,30.47,27.5,20.54,20.29,20.67,23.99,23.35,26.35,29.8,30.29,30.24,30.36,30.54,30.89,30.67,30.6,28.66,22.58,18.65,19.2,18.47,20.75,20.22,24.07,29.21,30.74,30.82,30.76,30.8,37.35,30.67,29.17,21.55,18.93,18.74,14.3,15.14,16.84,23.38,28.58,29.89,29.4,29.92,30.83,29.96,29,29.49,24.06,15.56,16.55,14.65,13.15
25.39,23.42,24.39,24.93,29.59,31.24,31.09,31.58,31.44,31.57,31.26,31.24,31.44,31.13,27.47,26.06,26.67,24.07,24.84,28.5,29.33,31.04,31.17,31.25,31.4,31.55,31.23,31.33,31.54,31.03,28.98,27.51,28.51,27.5,28.14,26.81,30.41,31.19,31.51,31.37,31.22,31.23,31.62,31.33,31.26,30.8,29.17,25.3,26.75,28.57,25.71,25.38,30.61,31.21,31.11,31.02,31.36,31.22,31.16,31.28,31.45,30.91,28.84,27.11,32.33,26,23.46,26.41,29.63,30.86,31.23,31.11,31.19,31.02,31.18,31.17,30.96,30.51,29.53,28.14,26.74,27.04,27.45,26.09,29.04,30.96,31.1,31.15,31.28,31.36,31.3,30.99,31.12,31.1,28.87,25.28,24.85,24.16,27.25,26.27,29.72,30.94,31.01,31.29,31.02,31.45,31.27,31.11,31.08,30.33,27.04,23.14,24.89,24.69,23.94,26.21,29.4,30.45,31.12,31.2,31.17,31.3,31.5,30.84,31.05,28.64,26.34,24.75,24.26,29.66,22.31,24.94,29.91,31,31.03,30.91,31.01,31.1,30.98,30.81,30.74,26.85,24.09,22.07,23.39,21.8,22.35,26.76,29.9,30.43,30.95,31.16,31.11,31.08,30.64,30.94,28.9,24.84,18.11,20.16,22.15,21.2,19.89,28.95,29.84,30.84,30.9,31.03,30.59,30.4,30.51,30.63,23.93,20.21,18.99,17.88,19.35,18.68,22.73,27.97,30.84,30.4,30.69,30.4,30.75,30.33,28.53,26.73,17.63,17.62,17.55,14.74
25.63,24.09,26.34,25.85,30.67,30.79,31.43,31.3,31.33,31.38,31.5,31.34,31.26,30.31,26.8,26.59,25.09,24.98,26.12,27.59,30.4,30.89,31.41,31.21,31.25,31.21,31.33,31.36,31.23,30.85,28.58,27.9,25.65,27.51,27.08,29.39,30.38,31.19,31.37,31.59,31.49,31.45,31.07,31.38,31.18,31.03,29.24,28.09,25.03,26.97,27.35,27.79,29.99,31.01,31.27,31.39,31.51,31.24,31.28,31.27,31.27,31.08,30.07,27.46,27.73,26.08,27.33,29.27,29.57,31.25,31.05,31.36,31.04,31.02,31.42,31.52,31.25,30.89,29.98,28.81,28.31,26.93,26.06,27.45,29.04,30.89,31.38,31.01,31.37,31.24,31.28,31.14,31.15,30.36,29.13,28.26,26.27,25.42,28.73,26.84,30.46,30.76,31.12,31.43,31.05,31.54,31.29,31.26,31.26,29.91,28.8,25.84,25.11,25.18,25.51,27.67,30.22,30.52,31.05,31.08,30.99,31.05,31.25,31,31.03,30.43,28.15,24.72,25.24,25.53,25.19,27.46,30.24,31.15,31.31,31.03,31.08,30.83,30.92,31.19,30.58,29.7,27.01,25.96,29.56,23.21,26.11,27.75,30.31,30.89,31,31.02,31.38,31.07,31.34,30.04,29.06,26.99,24.55,26.42,25.23,20.59,25.66,27.36,30.35,31.12,31.02,30.84,30.87,30.07,30.55,29.48,27.53,21.66,25.33,22.89,24.28,23.4,25.38,28.73,28.34,30.06,30.32,30.59,30.39,29.71,27.67,28.35,25.88,23.56,21.6,23.53
25.41,28.57,27.19,24.63,30.25,31.27,31.32,31.3,31.56,31.39,31.72,31.26,31.25,30.67,27.03,26.24,26.16,27.44,26.99,27.9,30.54,31.25,31.61,31.19,31.51,31.42,31.52,31.32,31.35,31.48,30.14,26.86,26.88,26.81,27.77,28.68,29.82,31.31,31.47,31.09,31.57,31.79,31.36,31.19,31.47,30.98,29.95,27.46,28.78,26.18,28.88,28.23,30.79,31.17,31.18,31.46,31.35,31.34,31.42,31.55,31.17,31.16,29.67,28.05,29.14,28.33,28.54,27.8,30.66,31.01,31.22,31.07,31.28,31.37,31.72,31.18,31.14,30.73,29.7,28.07,29.13,29.55,29.53,30.37,30.6,31.34,31.17,30.99,31.19,31.33,31.81,31.22,31.46,30.76,30.69,28.42,29.03,28.95,29.05,28.95,30.62,31.05,31.11,31.37,31.1,31.26,31.25,31.04,31.24,30.94,30.39,28.85,29.99,28.99,28.96,29.92,31.15,30.93,31.19,30.99,31.11,30.92,31.17,31.27,30.38,30.91,29.97,29.41,28.4,29.35,29.71,29.96,30.62,30.91,31.25,31.01,31.29,30.66,31.14,31,30.79,30.35,29.55,28.71,28.87,29.67,30.72,28.17,30.16,30.52,30.88,30.99,30.55,30.92,30.53,30.64,30.65,29.62,30.75,29.76,39.17,30.1,30.5,29.23,29.26,30.69,30.53,30.11,30.24,29.66,30.16,30.57,30.2,27.34,28.94,29.79,30.31,30.2,27.98,29.74,29.33,28.72,28.57,28.45,29.26,28.59,28.57,28.14,29.13,29.28,28.52,29.33
23.46,25.01,25.15,25.86,30.81,31.39,31.29,31.56,31.35,31.29,31.57,31.3,31.49,31.15,29.16,26.02,27.19,28.21,27.81,27.64,30.56,30.7,31.61,31.37,31.38,31.32,31.23,31.49,31.51,30.91,30.58,30.01,26.82,29.68,28.67,29.5,30.53,31.17,31.37,31.22,31.42,31.59,31.32,31.25,31.27,31.28,31.01,29.16,29.54,29.77,29.47,30.42,30.71,31.29,31.33,31.36,31.48,31.64,31.31,31.24,31.2,31.42,31.06,30.56,29.96,30.66,30.96,30.83,30.67,31.08,31.01,31.22,31.17,31.33,31.19,31.27,31.25,31.41,29.96,30.93,29.81,30.59,30.93,30.51,30.86,31.26,31.27,31.07,31.29,31.18,31.1,31.09,31.13,31.2,30.94,30.95,31.15,31.04,31.1,31.09,31.26,30.94,30.96,31.06,31.17,31.04,31.11,31.03,30.95,31.14,30.93,30.95,30.86,30.96,30.65,31.1,31,30.56,31.09,31.03,30.94,30.77,31.13,30.71,30.98,30.59,31.34,31.26,30.9,31.04,30.66,30.64,30.91,30.92,30.52,30.97,30.92,30.77,30.96,30.71,30.8,30.79,31.13,30.88,31.08,30.76,31.14,30.74,30.63,29.5,28.04,29.22,29.63,30.06,30.05,30,30.61,30.32,31.03,31.2,30.75,30.66,30.8,30.41,30.24,29.01,27.18,27.44,27.22,26.25,27.23,29.58,30.09,30.63,31.02,31.02,30.88,30.29,30.59,30.08,26.75,22.44,24.71,24.78,22.9,21.83,27.75,30.89,31.07,30.2,30.77,30.8
26.64,29.33,28.96,29.25,30.73,31.06,31.86,31.27,31.17,31.3,31.31,31.3,31.29,30.7,30.58,30.82,30.21,30.67,30.84,31.26,30.98,31.35,31.36,31.3,31.33,31.31,31.28,31.49,30.87,31.24,31.18,30.37,31.1,31.21,31.04,31,30.97,31.24,31.07,31.13,31.08,31.23,31.27,31.35,31.27,31.28,31.19,31.1,31,30.86,31.07,31.18,30.95,31.4,31.12,31.14,31.12,31.22,31.09,31.23,30.92,31.08,31.05,31.07,31.16,31.11,31.26,31.3,31.04,31.42,31.23,30.95,31.06,31.01,31.48,31.16,31,31.1,31.3,31.14,31.1,31.35,31.4,31.22,31.13,31.19,31.12,31.01,30.8,30.85,30.34,31.08,31.14,31.54,31.05,31.31,31.12,31.43,31.23,31.41,31.14,30.97,30.7,30.72,30.41,30.27,30.23,30.76,31.16,30.79,31.57,31.23,31.58,31.2,31.12,31.34,31.21,30.97,30.46,30,29.93,29.14,30.63,29.45,31,31.11,31.41,31.54,31.43,31.07,31.27,31.46,31.06,29.13,29.54,28.81,27.56,29.17,27.88,29.09,30.71,31.1,31.18,31.14,31.13,31.4,31.25,31.13,31.04,28.82,27.09,26.39,27.83,26.76,26.84,28.07,30.69,31.08,30.94,31.12,31.24,31.36,31.09,31.03,29.7,25.9,23.86,24.24,29.41,24.2,25.94,29.31,31.13,31.02,31.09,31.16,30.91,31.26,30.76,30.77,26.4,20.42,25.99,17.55,20.97,19.06,27.05,28.91,30.51,31.16,30.71,30.18
30.99,30.33,31.26,31.3,31.19,31.19,31.02,31.07,31.36,31.35,31,30.77,30.74,31.04,31.3,31.15,30.89,31.16,31.21,31.23,31.47,31.21,30.87,30.94,30.68,31.19,31.04,31.03,30.95,30.99,31.36,31.22,31.19,31.19,31.15,31.49,31.41,30.92,31.19,30.88,30.47,30.8,30.8,30.41,30.96,31.12,31.08,31.11,31.29,31.16,31.1,31.26,31.33,31.29,30.81,30.48,31.01,30.69,30.77,33.17,31.22,31.18,31.19,31.24,31.28,31.49,31.43,31.32,31.07,31.13,31.05,30.58,30.54,30.76,30.42,29.83,30.94,31.09,31.11,31.34,31.36,31.4,31.36,30.97,31.47,31.25,30.21,29.58,29.64,29.78,28.89,29.79,30.8,31,31.28,31.25,31.18,31.46,31.56,31.32,31.4,30.95,30.51,28.85,29.49,29.51,28.53,29.25,30.98,31.2,31.36,31.1,31.2,31.42,31.17,31.18,31.42,30.84,29.58,28.94,27.9,29.35,28.21,28.51,30.99,31.12,31.42,31.01,31.28,31.01,31.17,31.3,31.04,30.7,29.67,27.34,28.49,26.95,27.02,30.24,30.68,31.18,31.31,31.44,31.51,31.34,31.27,31.07,31.3,30.26,27.7,24.8,24.8,23.92,25.71,30.21,30.97,31.07,31.39,31.24,31.17,31.04,30.98,31.07,30.41,26.76,22.61,21.65,23.38,25.33,24.38,29.32,31.15,31.17,31.06,31.28,31.15,31.09,31.15,30.81,28.02,22.01,20.11,21.92,22.35,21.39,28.52,30.32,30.83,31.03,30.7,30.84
31.39,31.26,31.44,31.36,31.03,30.82,29.58,28.41,29.8,29.1,28.67,30.3,31.13,31.15,31.35,31.36,31.43,31.15,31.4,31.35,31.13,31.09,30.12,29.4,29.79,29.96,29.43,29.51,30.54,31.29,31.41,31.55,31.49,31.1,31.41,31.2,31.22,31.15,30.86,28.85,28.43,29.2,28.14,29.06,30.53,31.16,31.35,31.43,31.27,31.64,31.49,31.55,31.26,31.05,30.84,30.01,28.89,30.1,28.42,29.25,30.83,30.94,31.16,31.4,31.38,31.24,31.43,31.59,31.48,31.2,30.88,29.53,30.27,28.91,28.67,30.02,30.86,31.27,31.49,31.38,31.24,31.67,31.29,31.31,31.2,31.04,30.85,30.25,29.93,29.38,30.8,29,30.93,31.27,31.32,31.59,31.39,31.37,31.36,31.36,31.12,31.43,29.57,28.67,29.21,28.46,28.5,30.55,31.01,31.21,31.36,31.51,31.28,31.15,31.31,31.17,31.04,30.83,30.74,28.23,29.27,28.34,28.98,29.45,30.69,31,31.36,31.15,31.3,31.05,31.34,31.32,31.09,30.89,28.7,27.79,27.52,28.59,26.38,33.58,31.13,31.23,31.18,31.24,31.07,31.15,31.3,31.27,31,30.19,26.14,26.79,27.37,27.78,26.08,29.9,30.8,30.96,31.01,31.48,31.28,31.28,31.24,31.39,30.46,28.33,24.52,26.27,25.6,24.59,27.37,30.33,30.92,31.16,31.3,31.2,30.9,31.18,31.16,30.48,26.99,24.07,22.68,22.36,22.43,22.26,27.72,30.05,30.83,31.06,31.1,30.77
31.23,31.41,31.4,31.02,30.98,31.04,30.33,28.52,27.64,27.69,26.77,29.45,30.47,31.05,31.35,31.41,31.29,31.45,31.3,31.17,31.42,31.08,29.73,29.31,29.42,28.4,29.71,28.81,29.49,31.02,31.24,31.3,31.37,31.43,31.27,31.21,31.17,31.16,30.69,29.03,30.19,28.19,28.24,27.97,30.87,31.05,31.46,31.13,31.22,31.45,31.35,31.24,31.32,31.28,30.16,30.23,29.19,28,29.79,28.62,30.73,31.03,31.37,31.43,31.17,31.51,31.51,31.29,31.35,31.09,30.74,30.28,30.21,29.69,28.98,29.5,30.66,31.14,31.52,31.35,31.46,31.19,31.34,31.15,31.41,31.1,30.71,30.27,30.14,29.85,27.96,29.38,30.95,31,31.48,31.46,31.28,31.41,31.36,31.43,31.2,30.92,30.34,29.5,27.91,30.42,29.26,30.55,30.76,31.51,31.13,31.56,31.54,31.4,31.28,31.47,31.19,31.04,30.42,29.77,29.5,28.74,29.36,29.52,30.7,30.98,31.27,31.27,31.21,31.16,31.76,31.16,30.94,30.93,30.63,30.16,28.11,29.34,27.95,29.53,30.99,31.54,31.33,31.29,31.35,31.5,31.46,31.24,31.13,31.08,27.68,27.85,26.63,27.35,27.48,30.56,31.27,31.19,31.45,31.18,31.27,31.21,31.01,31.13,30.78,29.26,25.96,26.51,23.91,27.69,27.13,30.73,30.55,31.19,31.36,31.22,31.24,31.21,30.89,30.86,29.2,24.76,23.71,22.46,23.99,23.42,29.9,29.99,30.81,31.1,30.98,30.69
31.25,31.24,31.24,31.25,31.22,30.8,28.86,27.55,27.98,26.61,27.63,28.58,29.81,30.97,31.36,31.48,31.25,31.42,31.25,31.16,31.34,31.22,30.28,29.84,29.29,29.05,29.21,28.01,31.15,31.31,31.38,31.2,31.39,31.53,31.38,31.31,31.31,31.23,30.4,29.81,30.17,30.18,29.9,29.55,29.93,31.03,31.33,31.32,31.15,31.47,31.46,31.47,31.35,31.19,30.87,29.14,30.03,29.66,30.42,29.9,30.6,31.13,31.21,31.54,31.54,31.37,31.31,31.12,31.47,31.49,30.74,29.96,29.77,27.98,29.68,30.03,30.69,30.88,31.45,31.12,31.43,31.42,31.78,31.31,31.28,31.11,30.37,30.64,29.73,29.66,27.63,30.34,31.03,31.57,31.36,31.13,31.33,31.39,31.41,31.45,31.48,31.19,30.09,29,29.1,29.81,30.13,30.34,31.07,31.33,31.48,31.33,31.31,31.37,31.65,31.25,31.12,30.85,29.87,29.96,29.56,29.32,28.88,29.95,30.77,31.27,31.24,31.15,31.33,31.42,31.47,31.28,31.25,30.58,29.95,29.29,30.04,30.19,30.13,29.65,31.05,31.21,31.45,31.43,31.29,31.31,31.3,31.18,31.31,29.99,28.86,26.99,28.11,28.05,28.08,30.33,30.88,31.1,31.1,31.17,31.18,31.25,31.13,31.2,30.88,28.27,26.94,27.47,26.38,27.4,29.27,30.31,31.12,31.03,31.41,31.27,30.96,31.11,31.19,30.77,30.32,25.28,25.4,25.28,23.93,26.52,28.44,30.77,31.06,30.49,30.78,30.54
31.24,31.38,31.32,31.26,31.32,30.49,29.73,26.32,27.18,28.27,33.56,26.12,30.95,31.05,31.18,31.58,31.46,31.37,31.33,31.34,31.33,31.01,30.27,29.13,28.64,27.49,29.53,29.43,29.97,31.07,31.38,31.44,31.4,31.35,31.53,31.32,31.42,30.98,30.56,29.35,29.62,28.68,29.27,29.8,30.22,31.15,31.35,31.11,31.22,31.44,31.32,31.62,31.33,31.19,31.1,30.38,29.81,30.2,28.93,30.5,30.94,31.33,31.06,31.32,31.33,31.41,31.34,31.31,31.57,31.13,30.17,30.66,28.93,30.21,28.81,29.95,30.93,31.1,31.28,31.55,31.32,31.51,31.5,31.28,31.28,31.21,30.42,30.54,29.82,30.64,30.26,30.75,30.44,31.13,31.3,31.21,31.36,31.44,31.45,31.13,31.06,31.27,30.97,29,30.18,30.22,30.12,29.95,30.9,31.44,31.23,31.33,31.71,31.31,31.22,31.4,31.3,31.39,30.28,30.28,30.23,29.39,30.49,30.48,30.91,31.2,31.42,31.24,31.57,31.68,31.57,31.45,31.2,31.07,30.46,30.43,29.51,30.38,29.95,30.79,31.08,31.35,31.26,31.16,31.38,31.38,31.61,31.19,31.54,31.02,30.28,29.36,29.68,30.67,30.03,30.93,30.96,31.12,31.17,31.58,31.35,31.4,31.12,31.18,30.74,29.92,29.9,30.9,30.81,30.24,30.66,30.67,31.26,31.1,31.04,31.42,30.85,31.15,30.84,30.99,30.74,30.27,29.52,29.01,28.86,28.92,30.37,30.99,30.86,30.86,30.64,30.85
31.45,31.26,31.18,31.36,31.26,31.34,28.04,28.55,26.37,26.51,27.19,29,30.39,31.17,31.11,31.28,31.22,31.3,31.16,31.25,31.29,31.04,30.56,29.93,28.8,27.75,27.74,28.4,30.27,31.11,31.33,31.2,31.4,31.36,31.4,31.29,31.37,31.13,30.62,29.11,29.73,28.3,29.62,29.01,30.34,31,31.14,31.14,31.44,31.4,31.36,31.25,31.27,30.79,30.52,30.73,30.18,30.46,30.15,29.86,30.92,31.21,31.33,31.35,31.39,31.21,31.32,31.3,31.42,31.33,30.49,29.85,30.74,30.2,30.06,29.92,30.9,31.3,31.17,31.38,31.05,31.39,31.54,31.46,31.71,30.95,30.99,30.73,29.99,30.27,30.46,30.19,30.9,31.07,31.27,31.37,31.36,31.43,31.3,31.67,31.49,31.09,30.82,30.81,30.21,31.15,31.1,30.98,31.1,31.08,31.35,31.42,31.18,31.21,31.23,31.2,31.23,31.18,31,31.1,31.02,31.17,31.15,30.85,30.94,31.15,31.43,31.72,31.34,31.54,31.28,31.44,31.26,30.85,31.13,30.96,30.78,31.15,31.2,30.96,31.25,31.19,31.38,31.27,31.34,31.28,31.54,31.21,31.02,31.22,31.1,30.88,31.03,31.02,31.18,31.22,31,31.21,31.11,31.09,30.96,31.15,31.16,31.12,31.09,30.88,31.12,31.26,31.11,31.11,31.17,30.96,30.96,30.9,30.74,30.74,30.77,30.71,30.73,30.91,30.99,31.42,31.32,31.28,31.06,31,30.27,30.9,29.78,30.32,30.27,30.48
31.23,31.34,31.34,31.23,30.99,31,28.93,27.35,25.65,27.37,29.54,29.19,30.24,31.01,31.46,31.19,31.24,31.52,31.48,31.42,31.29,30.7,30.43,28.76,29.08,30.23,30.11,29.78,30.65,31.25,31.45,31.05,31.17,31.25,31.31,31.26,31.13,31.08,31.26,29.61,29.91,30.21,29.77,30.3,31.02,31.1,31.33,31.1,31.27,31.66,31.25,31.41,31.2,31.3,31.04,30.9,30.85,30.65,30.82,30.84,30.84,31.06,31.27,31.49,31.32,31.44,31.23,31.03,31.44,30.85,31.19,30.95,30.77,31.02,30.99,30.89,30.89,31.21,31.17,31.25,31.25,31.31,31.3,31.33,31.09,31.08,31.03,30.84,31.09,31.16,30.95,30.98,31.2,31.24,31.21,31.29,31.24,31.15,31.44,31.4,31.09,31.31,31.04,31.07,31.39,31.05,30.95,31.37,31.14,31.29,31.14,31.25,31.25,31.4,31.13,31.08,30.92,31.19,31.16,31,31.32,31.18,31.39,31.29,31.21,31.29,31.19,31.23,31.36,31.16,31.22,31.09,31.19,31.19,31.24,31.32,31.47,31.13,31.27,31.3,31.16,30.9,31.21,30.92,31.23,30.99,30.98,31.24,31.14,31.41,31.3,31.38,31.42,31.19,31.37,31.07,31.23,31.02,30.36,31,30.56,30.83,30.66,30.93,30.99,31.42,31.34,31.19,31.34,31.11,31.22,31.27,31.1,29.8,29.67,30.44,30.3,30.29,30.52,30.5,30.93,31.4,31,31.07,30.84,30.87,30.77,30.82,28.78,28.66,27.5,27.8
31.21,31.29,31.12,30.88,31.07,30.81,30.38,29.88,29.58,30.15,30.72,29.5,30.85,30.65,31.01,31.24,31.23,31.39,31.16,31.17,31.11,30.84,30.48,31.14,31.19,30.5,30.5,30.95,31.09,31.21,31,31.14,31.06,31.18,31.22,31.18,30.93,30.76,30.9,31.14,30.33,30.96,31.2,30.66,30.86,31.29,31.22,31.23,30.92,31.25,31.56,31,30.9,31.09,31,31,30.99,30.96,30.9,30.91,31.09,31.07,30.88,31.09,31.22,31.05,30.98,31.12,31,31.28,30.98,31.27,30.98,31.16,30.83,31.15,31.12,31.1,30.84,30.88,30.79,30.69,31.04,31.33,30.84,30.81,31.28,31.31,31.37,31.28,31.03,31.07,31.2,30.98,31.1,30.93,30.77,31,31.14,31.02,31,31.1,31.03,31.34,31.34,31.29,31.32,31.21,31.22,31.23,31,31.03,30.75,30.8,30.97,30.96,30.91,31.16,31.27,31.13,31.37,31.16,31.69,31.01,31.14,31.02,30.76,30.65,30.56,30.48,31.16,30.89,31.12,31.12,31.2,31.16,31.45,31.02,31.4,31.49,31.36,30.95,30.42,30.14,29.61,30,30.72,30.6,30.87,31.29,31.27,31.16,31.3,31.26,31.54,31.22,31.24,30.58,30.64,29.4,29.95,30.48,30.44,30.7,31.23,31.54,31.42,31.29,31.09,31.27,31.42,30.97,31,29.96,29.53,27.95,27.68,28.86,30.71,30.76,31.07,31.09,31.35,31.4,31.02,31.09,31.08,30.37,29.41,25.08,27.59,25.27
30.97,30.87,31.07,31.02,31.08,30.95,30.92,31.01,30.54,30.88,30.91,31.05,30.87,30.61,30.8,30.39,30.6,30.83,30.71,30.86,30.64,30.87,31.09,31.06,31,30.9,30.99,30.99,30.93,31.23,30.86,30.74,30.77,31.03,30.79,30.71,30.78,30.93,30.97,31.13,31.47,31.24,31.12,31.28,31.03,30.75,30.85,30.51,30.65,30.81,31.32,30.45,30.81,30.94,31.15,31.18,31.38,30.94,31.05,31.03,31.06,30.91,30.69,30.71,30.8,30.57,30.24,30.62,30.68,30.91,31.09,31.33,31.11,31.24,31.31,31.16,31.17,30.85,30.96,30.53,30.63,30.99,30.8,30.84,30.81,31,31.5,31.11,31.41,31.57,31.54,31.26,31.05,31.17,30.93,30.26,29.72,30.36,30.77,30.32,31.02,31.31,31.54,31.35,31.47,31.48,31.26,31.29,31.26,31.12,30.61,30.58,30.47,30.25,30.79,30.81,31.01,31.08,31.45,31.33,31.4,31.07,31.16,31.37,31.43,30.99,30.84,29.5,29.48,30.14,30.8,30.63,30.92,31.11,31.18,31.31,31.53,31.19,31.28,31.13,31.38,30.97,30.27,30.14,30.63,30.65,30.68,30.85,31.16,31.34,31.13,31.64,31.39,31.33,31.39,31.49,31.15,30.23,30.2,29.53,29.56,29.76,30.35,30.88,31.25,31.33,31.39,31.53,31.27,31.25,31.19,31.13,31.15,28.94,29.74,28.16,29.13,29.17,29.64,30.81,30.79,31.29,31.05,31.23,31.51,31.32,30.87,30.21,29.79,27.88,28.05,27.67
29.44,29.78,29.7,29.46,31.14,30.97,30.94,31.26,31.18,31.15,31.15,31.09,31,30.72,29.57,28.84,29.71,29.5,29.15,28.19,30.63,30.92,31.04,31,30.98,31.08,31.09,31.17,31.41,30.87,30.7,29.4,29.06,29.71,29.23,29.21,30.63,31.08,31.19,31.19,30.94,31.28,31.17,31.01,31.13,31.09,30.88,27.59,29.14,29.46,29.58,30.04,30.41,31.08,31.19,31.02,31.11,31.23,31.21,31.35,31.18,31.05,30.86,30,29.06,29.16,30.56,29.71,30.91,30.72,31.04,31.37,31.27,31.25,31.19,31.22,31.13,31.14,30.85,29.8,29.65,29.56,29.72,30.55,30.84,31.07,31.34,31.12,31.49,31.53,31.31,31.1,31.42,31.07,30.7,30.07,30.13,30.34,30.48,30.52,30.94,31.17,31.19,31.45,31.47,31.42,31.45,31.32,31.3,31.07,30.85,29.93,29.62,30.52,29.96,30.68,30.82,31.38,31.49,31.49,31.39,31.54,31.29,31.32,31.26,31.02,30.83,30.4,30.7,29.75,30.56,30.24,31.08,31.51,31.33,31.21,31.35,31.29,31.35,31.5,31.43,30.74,30.19,30.57,29.87,30.14,30.57,30.66,31.15,31.4,31.27,31.27,31.19,31.53,31.46,31.39,31.12,30.82,29.82,29.89,30.25,30.56,30.46,31.02,31.26,31.26,31.19,31.38,31.21,31.51,31.71,31.03,31.11,29.94,28.99,28.56,29.14,29.42,29.96,30.59,30.9,31.07,31.1,31.1,31.17,31,30.99,30.73,30.16,29,29.22,28.32
26.9,26.39,23.52,26.73,29.22,30.82,30.99,31.37,30.98,31.18,31.27,31.14,31.1,30.96,29.83,27.98,26.69,27.9,28.18,29.41,30.04,31.16,31.11,31.3,31.17,31.24,31.2,31.17,30.99,30.69,30.37,30.22,29.78,29.16,29.26,29.05,30.39,31.05,30.93,31.36,31.34,31.14,31.25,31.3,31.03,31.09,30.31,29.6,29.06,29.54,30.28,30.21,30.79,31.09,31.17,31.4,31.29,31.22,31.42,31.21,31.2,31.03,30.61,29.2,30.33,29.44,29.52,29.75,30.68,30.87,31.1,31.05,31.2,31.52,31.44,31.09,31.23,30.82,30.78,30.58,30.27,29.83,29.88,30.2,30.97,30.99,31.24,31.04,31.32,31.23,31.62,31.24,31.06,30.97,30.82,30.33,29.7,29.43,30.57,30.53,30.81,31.09,31.63,31.29,31.26,31.38,31.36,31.43,31.31,31.17,31,30.2,29.58,29.86,30.45,30.78,30.81,31.16,31.35,31.31,31.41,31.2,31.43,31.36,31.31,30.96,30.75,29.86,30.65,30.21,30.55,30.37,31.02,31.43,31.31,31.27,31.52,31.36,31.27,31.2,31.15,30.95,30.37,30.59,30.25,30.12,29.79,30.74,31.09,31.47,31.44,31.16,31.48,31.41,31.34,31.28,31.42,31.08,31.39,30.32,30.62,30.59,30.02,31.04,31.32,31.25,31.44,31.3,31.36,31.27,31.07,31.18,30.78,30.01,29.18,29.48,28.63,29.44,30.25,30.95,31.01,30.95,31.25,31.24,31.05,31,31.25,30.73,30.51,29.4,28.43,28.78
25.94,25.19,26.2,26.93,30.07,30.76,31,31.16,31.22,31.33,31.19,31.14,30.98,31.06,29.11,27.25,27.99,28.7,29.23,27.78,29.35,30.95,31.03,31.16,30.95,31.06,31.1,31.15,31.44,30.87,30.05,28.78,28.11,29.17,29.09,29.11,30.42,30.68,31.19,31.04,31.04,31.13,31.17,30.95,31.2,30.93,30.14,28.93,29.92,29,28.67,30.35,30.17,30.85,31.17,31.16,31.27,31.42,31.11,31.47,31.17,31.09,30.47,29.92,28.65,30.38,29.96,29.64,30.01,31.07,30.98,31.19,31.16,31.39,31.02,30.95,31.33,30.97,30.71,30.6,29.37,30.12,30.35,30.16,30.82,31.33,31.31,31.17,31.13,31.17,31.17,31.22,31.17,31.01,30.77,30.49,30.48,30.49,30.71,30.41,30.55,31.16,31.12,31.54,31.52,31.25,31.35,31.18,31.18,31.04,30.78,30.14,30.15,30.33,30.45,30.77,31.03,31.32,31.05,31.17,31.28,31.37,31.25,31.54,31.38,31.2,30.84,30.85,30.52,30.66,29.76,30.06,30.98,31.51,31.39,31.35,31.29,31.14,31.29,31.2,31.29,30.91,30.46,29.94,30.52,30.75,30.73,30.14,31.33,31.1,31.27,31.6,31.48,31.25,31.25,31.32,30.98,30.98,30.44,30.02,30.1,29.78,30.39,31.22,31.02,31.5,31.21,31.43,31.23,31.39,31.23,31.22,31,29.84,29.95,30.13,29.35,29.16,29.96,31.07,30.84,31.11,31.19,31.31,31.12,31.05,30.94,30.8,30.88,30.41,30.16,30.16
24.76,25.64,24.61,27.48,29.31,30.68,31.08,31.1,31.02,31.08,31.24,31.15,30.88,30.63,30.39,27.91,26.53,27.09,28.37,27.32,30.14,30.92,31.19,31.28,31.28,31.01,31.29,31.23,31.15,30.78,30.42,29.45,27.92,28.27,28.05,29.06,30.57,30.99,30.97,31.13,31.26,31.11,31.26,31.15,31.15,30.92,30.68,28.55,29.98,27.74,29.89,29.43,30.38,31.01,31.43,31.2,31.21,31.29,31.37,31.4,31.23,30.99,30.63,29.91,30.31,29.68,29.58,29.32,30.66,30.92,31.26,31.23,31.14,31.1,31.08,31.21,31.17,30.93,30.78,30.48,30.18,30.38,29.38,29.57,30.63,31.09,31.23,31.23,31.16,31.23,31.12,31.34,31.25,31.2,30.93,30.22,30.04,30.37,30.72,30.77,31.05,30.97,31.31,31.26,31.55,31.02,31.3,31.19,31.39,30.83,30.73,29.82,30.17,29.85,29.19,30.59,30.98,31.01,31.18,31.49,31.4,31.48,31.48,31.39,31.16,31.17,30.83,30.72,30.56,30.68,30.77,30.65,30.93,31.25,31.35,31.29,31.44,31.12,31.33,31.23,31.12,31.11,30.67,30.64,30.4,30.69,30.93,30.86,31.19,31.4,31.48,31.44,31.4,31.45,31.29,31.5,31.29,30.99,31.02,30.82,30.99,30.93,30.91,30.95,31.33,31.65,31.1,31.35,31.03,31.39,31.16,31.17,31.27,30.98,31.26,30.83,30.87,30.84,30.81,30.8,31.32,31.3,31.2,31.08,30.9,30.89,30.88,31.15,31.21,31.08,30.71,30.61
24.33,25.92,25.97,24.93,29.34,30.59,31.09,31.21,31.28,31.19,31.12,31.03,31.07,30.54,29.94,26.09,27.91,27.28,27.81,27.95,29.89,31.17,31.16,31.32,31,31.24,31.16,31.12,31.04,30.9,30.5,28.61,27.97,29.09,28.34,29.9,29.98,30.81,31.13,31.23,30.8,31.16,31.15,31.16,31.09,30.96,29.69,29.89,29.05,29.29,30.28,30.05,30.93,30.83,31.12,31.21,31.14,31.24,31.13,31.24,31.36,30.94,30.81,30.5,29.65,29.71,28.89,28.06,30.65,31.1,30.99,30.97,31.01,31.07,31.4,30.95,31.04,31.15,30.64,30.21,30.55,30.01,30.02,30.43,30.76,30.87,31.08,31.28,31.03,31.21,31.31,31.18,31.28,31.17,31.12,30.26,30.59,30.43,30.59,30.39,30.8,31.36,31.13,31.41,31.03,31.27,31.27,31.41,31.12,30.94,30.8,30.94,30.52,31.05,30.74,30.62,30.88,31.48,31,31.07,31.17,31.17,31.39,31.22,31.44,31.01,30.85,30.82,31,30.79,30.8,31.1,31.07,31.18,31.08,31.36,31.21,31.67,31.22,31.12,31.39,31.14,31.08,30.81,30.76,31.09,31.07,30.98,31.19,31.17,31.25,31.34,31.29,31.28,31.34,31.17,31.03,31.19,31.13,31.06,31.36,31.15,31.08,31.19,31.12,31.37,31,31.12,31.18,31.07,31.05,31.2,31.44,31.24,31.18,31.3,31.27,31.04,30.88,30.67,30.73,30.67,30.75,30.56,30.66,30.73,30.82,30.65,31.13,30.99,31,31.07
25.84,26.11,27.45,25.85,29.46,30.59,30.83,31.2,31.19,31.02,30.94,30.85,30.72,30.77,29.64,29.01,27.83,28.34,28.84,26.64,30.22,30.58,30.85,31.04,30.9,30.92,31.23,30.85,30.99,31,30.32,28.75,28.49,28.83,28.62,29.62,30.1,31.01,30.81,31.33,30.7,30.88,30.89,30.75,30.72,30.78,30.46,30.18,30.17,29.72,30.16,29.76,30.56,30.81,30.84,31.02,31.06,31.07,31.07,30.92,31,30.74,30.62,30.37,30.37,30.24,30.68,30.4,30.63,30.79,30.82,30.84,30.88,31.09,30.94,30.97,31.03,31.02,30.59,30.81,30.69,30.8,30.68,30.44,30.94,30.78,30.79,31.08,30.83,31.09,31.04,30.93,30.89,31.09,30.86,30.73,31.19,30.83,30.9,31.09,30.89,30.93,30.98,31,31.1,31.01,30.86,30.79,30.92,31.19,30.98,30.81,31.07,30.89,30.91,30.81,30.99,30.95,31.09,30.87,30.97,30.9,30.96,31.27,31.12,30.87,31.05,31.04,31.01,30.99,31.02,30.97,30.96,30.99,30.93,30.73,30.74,30.92,30.83,30.84,30.9,31.08,31.01,31.13,31.12,31.04,31.04,31.15,31.16,30.97,30.75,31.04,30.72,30.75,30.67,31.09,31.08,31.42,31.29,31.08,31.44,31.08,31.51,31.48,30.93,30.91,30.68,30.55,30.26,30.65,30.76,31.05,31.32,31.3,31.4,31.26,31.57,31.14,31.19,31.16,31.09,30.17,30.1,29.9,30.19,30.13,30.74,30.71,31.18,31.04,31.01,30.8
27.72,29.75,28.49,28.49,30.29,29.99,30.65,30.66,30.75,30.87,30.94,30.86,30.89,30.73,30.31,29.89,30.44,29.98,30.11,30.68,30.6,30.78,30.79,31,30.9,30.77,30.9,31.31,30.65,30.81,30.35,30.56,30.37,30.69,30.54,30.4,30.62,30.67,30.83,30.7,30.95,30.76,30.64,30.82,30.63,30.79,30.85,30.67,30.52,30.59,30.66,30.63,30.94,30.86,30.92,31.15,30.83,30.8,30.55,30.87,30.77,30.64,30.86,30.91,30.77,30.61,30.99,30.94,30.58,30.95,30.86,30.58,30.9,30.8,30.66,30.77,30.84,30.94,31.15,30.89,31.07,30.79,30.72,30.96,31,31,30.8,30.7,30.8,30.87,30.98,30.7,30.9,30.86,31.15,30.94,30.91,30.97,31.26,30.9,31.05,30.81,30.81,30.73,30.67,30.57,30.65,30.63,30.8,31.08,30.94,31.2,31,30.93,31.25,30.99,30.98,31.07,30.78,30.61,30.14,30.63,34.14,30.67,30.65,30.77,31.13,31.13,31.23,30.99,31.32,31.21,31.28,31.01,30.7,30.51,30.93,30.51,30.58,30.64,30.9,31.07,31.27,31.01,31.17,31.19,31.6,31.32,30.86,31.02,30.52,30.38,30.59,30.48,30.43,30.53,31.12,31.2,31.13,31.03,31.28,31.35,31.23,31.28,31,30.76,30.38,30.13,30.43,30.54,30.21,30.88,31.25,31.33,31.6,31.57,31.42,31.45,31.51,31.11,30.74,29.51,29.18,29.05,29.6,29.96,31.04,30.64,31.03,30.89,31.04,30.75
30.67,30.59,30.63,30.52,30.98,30.51,30.23,30.69,30.69,30.58,30.6,30.56,30.61,30.9,30.23,30.82,30.8,30.83,31.01,30.87,30.8,30.8,30.51,30.56,30.45,30.28,30.67,30.68,30.45,30.47,30.69,31.17,30.61,30.79,30.96,30.78,30.85,30.7,30.61,30.6,30.34,30.48,30.48,30.44,30.19,30.65,30.8,30.89,30.77,30.74,30.86,31.07,30.74,30.7,30.66,30.71,30.8,30.18,30.09,30.28,30.48,30.83,31.02,30.88,30.59,30.85,31.28,31.12,31.14,30.89,30.64,29.97,30.48,30.12,30.26,30.37,30.23,30.77,30.78,30.94,30.86,31.02,31.35,30.68,30.94,30.76,30.53,30.43,30.26,30.57,29.37,30.3,30.44,30.65,30.93,30.89,30.94,30.99,31.17,31.01,31.03,30.94,30.76,30.41,30.43,30.51,30.24,30.42,30.59,30.72,31.04,31.09,31.09,31.06,31.06,31.21,30.95,30.92,30.63,30.18,29.85,30.47,30.69,30.3,30.57,30.88,31.21,31.1,31.2,31.08,31.33,31.07,31.25,30.95,30.31,30.31,30.65,30.4,30.49,30.46,30.82,31.07,31.36,30.82,30.93,31.15,31.24,31.05,31.09,30.48,30.14,30.62,30.48,30.14,30.7,30.74,31.22,31.07,31.19,31.04,31.22,31.24,31.29,31.19,31.01,30.76,30.75,30.69,29.67,30.18,30.34,30.97,30.93,31.14,31.31,31.13,31.16,31.41,31.14,31.11,31.1,30.11,29.32,29.97,30.42,29.98,30.28,30.89,30.82,31,30.81,30.96
30.65,30.93,30.62,30.87,30.93,30.68,29.47,29.87,30.15,28.5,28.87,28.89,29.7,30.99,30.83,31,30.81,30.87,30.84,30.88,30.85,30.58,30.13,27.61,27.91,30.21,28.86,28.77,30.04,30.79,30.95,30.84,31.08,30.73,31.02,30.75,30.79,30.57,30.1,29.19,30.15,29.24,28.88,29.98,30.2,30.72,31.18,30.82,30.97,30.91,30.86,30.85,30.7,30.83,30.09,29.74,29.09,29.37,29.31,28.24,30.49,30.57,30.76,31.06,31.02,31.1,30.92,31.19,31,30.81,30.65,28.26,30.01,29.77,28.43,29.46,30.4,30.79,30.77,30.87,31.1,31.3,30.89,31,30.89,30.66,30.68,29.95,30.21,29.23,29.94,29.41,30.33,30.56,31.03,30.96,30.85,31.04,31,31.05,31.02,30.88,30.82,29.72,30.48,30.38,30,30.32,30.47,30.73,31.17,31.1,31.14,31.06,31.04,30.97,30.91,30.72,30.91,30.57,30.1,30.41,30.16,29.74,30.56,30.96,31.02,31.06,31.09,31.4,31.06,31.22,31.31,30.94,30.91,30.5,30.26,30.31,30.31,30.41,30.88,31.22,31.04,30.99,31.21,31.18,31.16,31.27,30.99,30.9,30.52,30.48,30.21,30.66,29.85,30.68,30.98,31.04,31.05,31.39,31.36,31.06,31.21,31.24,30.99,30.71,30.5,29.4,30.4,30.39,30.78,30.91,31.22,31.21,30.97,31.17,31.4,31.39,31.19,31.08,30.9,29.92,29.64,29.86,30.17,29.69,31.01,30.88,30.87,30.84,31.23,30.91
30.82,30.96,30.79,31.13,31.02,30.82,28.81,26.58,25.78,22.93,27.48,24.57,28.94,30.67,30.95,31.05,30.9,31.01,30.89,30.81,30.93,30.72,29.9,28.44,28.42,27.08,27.37,27.97,29.36,30.36,30.62,31.09,30.86,30.84,30.91,31.08,30.9,30.78,30.57,29.15,27.92,27.92,29.53,28.99,31.05,30.5,30.76,30.79,30.92,31.16,31.09,30.78,30.7,30.52,30.71,29.89,28.53,28.74,28.76,28.15,29.72,30.84,30.73,30.93,30.69,30.95,30.98,30.77,31,30.59,30.19,30.68,30.13,29.43,29.52,30.5,30.31,30.79,30.83,30.74,31.22,30.86,31.12,30.97,31,30.78,30.71,30.08,29.86,28.38,29.81,29.87,30.47,30.55,30.87,30.9,31.17,31.08,31.35,31.01,31.17,31.08,30.3,29.81,29.94,28.94,30.13,30.67,30.56,30.85,31.1,31.08,30.84,31.16,30.82,31.11,30.97,30.85,30.37,30.03,29.96,29.81,30.15,30.46,30.75,30.87,30.86,31.24,31.25,31.14,31.07,31.11,31.03,31.05,30.19,30.51,29.89,30.26,30.05,30.66,30.69,31.01,30.89,31.26,31.22,31,31.02,31.27,31.18,30.62,30.52,29.8,30.58,30.23,30.2,30.65,30.99,31.22,31.43,31.21,31.29,31.26,31.25,31.13,30.88,30.32,29.74,29.04,30.01,29.98,30.24,30.87,31.05,31.19,31.09,31.01,31.36,31.15,31.35,31.13,30.55,30.26,29.78,30.22,29.33,30.61,30.58,30.51,31.23,30.77,30.96,31.01
31,31.09,30.67,30.96,30.73,30.37,29.86,27.59,24.45,25.98,25.88,27.71,29.15,30.39,30.82,31.25,30.95,30.84,30.95,31.04,30.94,30.64,29.71,28.02,28.04,25.99,27.54,27.88,29.51,30.23,30.94,31.03,30.8,30.95,30.75,30.8,30.82,30.68,30.39,29.72,27.82,28.62,28.27,29.4,29.38,30.42,30.57,31,30.8,30.91,31.12,30.55,30.96,30.74,30.38,29.94,29.48,29.2,28.45,28.86,29.8,30.54,30.95,30.76,31.04,30.81,30.9,31.1,30.78,30.9,30.62,29.63,28.74,30.37,28.88,29.17,30.68,30.89,30.95,30.77,30.77,31.02,30.84,31.04,30.88,30.74,30.62,30.4,29.24,28.95,30.24,29.71,30.41,30.8,31.06,30.93,30.93,30.98,31.01,31.07,31.16,30.86,30.72,29.77,29.92,29.92,30.19,30.1,30.65,31.06,31.05,31.08,31.09,31.11,31.11,31.16,31.19,30.84,30.5,29.72,30.11,29.58,30.34,30.36,30.65,30.91,30.84,31.13,31.03,31,31.28,31.04,31.13,30.82,30.92,29.9,30.7,30.68,30.39,30.95,30.65,30.98,31.06,31,31.11,31.18,31.15,30.93,31,31.13,30.68,30.29,30.61,31.01,30.65,30.72,31.01,30.97,31.14,31.08,31.1,31.17,31.09,31.23,31.11,30.24,29.54,29.83,30.27,30.52,30.41,30.67,30.85,31.05,31.3,31.33,31.15,30.98,31.27,31.11,30.83,30.69,29.98,30.6,30.45,30.64,30.61,31.12,31.04,31.18,31.44,31.33
30.82,30.9,30.83,30.98,30.83,30.73,28.75,24.81,26.3,25.98,26.71,26.93,28.63,30.29,31.09,31.04,30.95,30.83,30.95,31.18,30.76,30.72,29.87,26.34,28.54,28.36,28.22,28.94,29.47,30.52,30.94,30.9,30.84,30.78,31.04,31.02,30.95,30.66,30.27,29.43,29.14,28.22,28.04,27.42,30.15,30.6,30.95,30.75,31.01,31.15,30.67,30.98,31.06,30.71,30.1,29.07,28.24,28.8,32.31,28.43,30.4,30.62,30.93,30.96,30.86,30.98,30.95,31.03,30.79,30.86,30.47,28.32,29.92,29.78,29.81,29.04,30.07,30.43,30.88,31.01,30.85,31.1,30.69,31.12,31.06,30.73,30.47,29.43,29.63,29.6,30.11,29.64,30.07,30.69,30.91,30.93,31.03,30.92,30.85,31.28,31.06,30.85,30.92,29.48,30.24,29.27,29.98,30.6,30.66,30.88,30.77,30.79,30.94,30.99,30.94,30.78,31.1,30.89,30.65,29.7,29.92,29.96,30.27,30.44,30.72,31.05,31.05,30.91,30.9,30.97,31.19,31.25,30.79,30.94,30.25,30.27,30.68,30.58,30.64,30.75,30.75,31.15,31.04,31.26,31,31.15,31.27,30.91,31.07,30.84,30.78,30.7,30.11,30.37,30.82,30.59,30.84,31.27,31.14,31.25,31,31.39,31.04,31.2,30.98,30.78,30.83,30.78,30.57,30.61,30.96,30.88,30.97,31.35,30.99,31.03,31.18,31.04,31.15,30.95,31.07,30.89,30.99,30.76,31.12,30.96,31.12,30.84,30.98,31.21,31.03,30.99
30.79,30.96,30.97,30.85,30.6,30.91,28.75,25.4,27.13,26.18,27.52,27.78,28.43,30.52,30.8,30.87,30.59,30.98,30.94,30.86,31.04,30.72,30.4,27.75,26.88,27.03,28.07,28.55,29.74,30.45,30.5,30.85,30.75,30.74,31,30.84,30.73,30.51,30.48,27.93,28.64,27.24,27.92,29.5,30.26,30.38,30.62,30.55,30.57,30.95,31.06,30.92,30.68,30.6,30.45,29.27,29.48,29.68,29.75,29.66,30.57,30.48,30.78,31.07,30.82,30.89,30.95,31.08,30.74,30.59,30.66,29.77,30.2,29.85,29.34,30.03,30.45,30.7,30.43,30.77,30.59,30.99,30.9,30.69,30.72,30.77,30.8,30.49,30.14,30.02,30.22,30.29,30.78,30.45,30.96,30.85,30.8,30.8,30.87,30.93,30.82,30.79,30.48,30.21,30.11,30.56,30.28,30.43,30.69,30.75,30.71,30.7,30.77,31,30.92,31.08,31.02,30.75,30.56,30.51,30.62,30.54,30.63,30.39,30.73,31.01,30.77,30.85,30.95,30.81,30.81,30.89,30.6,30.73,30.91,30.75,30.78,30.67,30.63,30.89,30.67,30.72,30.63,30.68,30.83,30.8,30.82,30.92,30.85,30.86,30.75,30.75,30.67,30.78,30.78,31.01,31.06,30.72,30.83,30.85,30.91,30.97,31.01,30.91,30.81,30.89,30.76,31.05,30.86,30.73,31.05,30.83,31.02,30.62,31.05,30.76,30.68,30.64,30.77,31.11,30.9,31.13,30.87,31.03,30.84,30.85,30.84,30.72,30.88,30.53,30.71,30.73
30.61,30.7,30.93,30.94,30.77,30.44,29.58,25.76,29,27.15,25.97,25.32,29.41,30.66,30.97,30.77,30.96,31.11,30.77,30.56,30.62,30.38,29.86,28.33,28.73,28.42,27.9,27.38,29.77,30.54,30.7,30.93,30.89,30.93,30.76,30.62,31.03,30.93,30.42,29.51,29.69,28.51,29.53,30.39,30.21,30.64,30.84,30.69,30.84,30.95,30.44,30.72,30.68,30.42,30.39,30.13,29.72,30.35,29.59,30.34,30.29,30.55,30.74,30.65,30.69,30.98,30.62,30.63,30.58,30.58,30.02,30.53,30.3,30.43,30.49,30.52,30.53,30.68,30.71,30.78,30.64,30.84,30.68,30.75,30.73,30.52,30.8,30.78,30.46,30.57,30.41,30.73,30.65,30.79,30.75,30.75,30.67,30.76,30.56,30.91,30.56,30.76,30.93,30.61,30.69,30.49,30.62,30.6,30.89,30.56,30.51,30.7,30.82,30.75,30.84,30.47,30.59,30.68,30.71,30.7,30.74,30.94,30.79,30.74,30.83,30.52,30.65,30.67,30.79,30.73,30.68,30.79,30.73,30.85,30.82,30.84,31.13,30.96,31.18,30.7,30.67,30.57,30.64,30.41,30.64,30.77,30.53,30.64,30.59,30.94,30.86,31.07,30.9,31.11,30.83,31.05,30.68,30.5,30.54,30.66,30.36,30.31,30.54,30.94,30.76,30.91,30.92,31.07,31.14,31.01,30.88,30.96,30.66,30.59,29.67,30.38,30.43,30.48,31,31.09,31.17,31.22,31.06,31.02,31.19,31.09,31.16,30.8,30.39,29.82,29.71,30.2
30.82,30.98,30.6,30.52,30.73,30.25,29.31,28.49,30.12,28.33,28.92,29.59,28.94,30.32,30.78,30.73,30.67,30.95,30.78,31.08,30.75,30.58,30.68,29.96,29.95,29.98,30.21,30.31,30.3,30.47,30.59,30.66,30.56,30.73,30.63,30.62,30.74,30.47,30.28,30.57,30.62,30.43,30.27,30.47,30.63,30.41,30.79,30.34,30.7,30.52,30.64,30.43,30.42,30.49,30.41,30.33,30.75,30.36,30.67,30.77,30.44,30.46,30.42,30.53,30.59,30.6,30.56,30.54,30.71,30.58,30.56,30.71,30.79,30.61,30.41,30.45,30.8,30.3,30.69,30.43,30.38,30.41,30.7,30.34,30.5,30.7,30.64,30.67,30.63,30.68,30.9,30.8,30.95,30.71,30.53,30.55,30.21,30.45,30.38,30.29,30.68,30.83,30.88,30.68,30.93,30.89,30.85,30.82,30.8,30.46,30.56,30.12,30.36,30.3,31.12,30.6,30.59,30.66,30.82,30.69,30.7,31.01,30.7,30.65,30.79,30.65,30.42,30.3,30.13,30.03,30.26,30.74,30.43,30.64,30.65,30.78,30.75,30.78,30.93,30.83,31.02,30.54,30.34,29.68,30.01,29.95,30.32,30.43,30.64,31.18,31.01,30.92,31.01,31,30.73,30.89,30.75,30.38,30.27,29.98,29.96,29.98,30.45,30.6,30.77,31.21,30.96,31.11,30.95,31.03,30.85,30.92,30.64,30.21,28.91,29.58,29.82,30.06,30.42,30.56,30.91,31.18,30.98,30.9,31.1,31.19,30.71,30.59,30.24,29.47,30.28,29.46
30.19,30.88,30.32,30.47,30.58,30.51,30.14,30.67,30.61,30.13,30.61,30.64,30.29,30.68,30.27,30.55,30.49,30.64,30.62,30.49,30.22,30.48,30.26,30.62,30.6,30.6,30.8,30.78,30.73,30.57,30.01,30.27,30.25,30.17,30.42,30.43,30.23,30.56,30.46,30.81,30.52,30.73,30.8,30.65,30.84,30.38,30.42,30.48,30.65,30.09,30.22,30.07,30.58,30.73,30.77,30.99,30.79,30.62,30.79,30.89,30.88,30.81,30.43,30.33,29.8,30.38,30.26,30.15,30.11,30.38,30.64,30.79,30.96,30.72,30.83,30.55,30.73,30.7,30.54,29.78,29.84,29.58,34.44,29.64,30.22,30.41,30.65,30.63,30.65,30.76,30.68,30.66,30.7,30.87,30.55,30.22,29.72,29.92,29.95,30.18,30.75,30.49,30.74,30.82,31.01,30.64,30.72,30.8,30.67,30.8,30.53,30.32,30.21,29.88,30.28,29.94,30.22,30.58,30.86,30.92,30.81,31.02,31.01,30.76,30.73,30.63,30.47,30.29,30.44,30.13,30.11,29.93,30.67,30.74,30.71,31.14,31.12,31.24,30.85,31,30.8,30.81,30.34,30.09,30.62,29.92,30.49,30.28,30.64,30.99,30.71,31.12,30.89,30.94,30.93,30.72,30.7,30.41,29.75,29.65,29.08,29.89,29.9,30.4,30.52,30.95,30.75,31.05,31.02,30.83,30.8,31.03,30.77,30.32,28.84,28.37,30.24,29.98,30.41,30.55,30.95,30.94,31.16,30.94,31.16,31.02,31,30.93,30.25,28.7,29.84,29.67
28.97,26.94,26.34,29.85,29.36,30.75,30.57,30.63,30.71,30.47,30.67,30.76,30.68,30.52,30.17,30.28,27.14,29.49,27.57,29.74,29.93,30.74,30.66,30.56,30.66,30.83,30.49,30.69,30.59,30.38,30.03,27.79,28.6,29.39,28.36,28.96,29.2,30.36,30.78,30.59,30.76,30.72,30.84,30.63,30.62,30.6,29.56,29.13,29.93,29.01,29.82,28.63,30.03,30.49,30.91,30.69,30.6,30.77,30.72,30.94,30.89,30.59,30.22,29.95,28.64,29.39,28.74,28.65,30.02,30.54,30.66,30.69,30.7,30.68,31.01,30.65,30.72,30.8,30.28,30.2,29.78,28.76,29.72,29.99,29.26,30.46,30.78,30.95,30.77,30.72,30.74,30.72,30.87,30.67,30.65,29.06,30.03,29.7,29.22,29.82,30.31,30.68,30.93,30.76,30.6,30.83,31.34,30.75,30.91,30.58,30.48,28.98,29.47,28.91,28.9,30.18,30.34,30.81,30.6,30.76,30.65,31.01,30.84,30.67,30.74,30.74,30.58,30.43,29.79,29.86,30.17,29.54,30.74,30.67,30.94,30.86,30.87,30.82,31.32,30.74,30.96,30.65,30.08,28.83,30.08,29.05,29.62,30.17,30.85,30.8,30.99,30.91,30.92,30.88,30.83,30.84,30.63,30.69,29.69,29.39,29.42,29.71,30.2,30.39,30.79,30.92,30.95,30.97,30.68,30.75,30.73,30.95,30.75,30.05,30.26,29.64,30.09,30.08,30.24,30.72,31.06,31.06,31.15,31.05,31.01,31.18,30.91,30.88,30.46,30.25,29.64,29.48
23.61,26.36,26.57,25.79,28.08,30.46,30.98,30.76,30.87,30.75,30.81,30.83,30.62,30.57,29.68,29.4,27,29.03,28.58,27.86,27.64,30.32,30.54,30.67,30.59,30.81,30.86,30.76,30.83,30.58,30.69,28.94,28.66,28.66,28.22,28.27,29.35,30.21,30.58,30.67,30.78,30.65,30.63,30.82,30.56,30.42,30.51,29.49,28.52,28.24,29.14,29.11,29.35,30.6,30.68,30.89,30.72,30.6,30.9,30.78,30.86,30.58,30.53,29.44,27.8,28.42,28.87,29.2,30.36,30.49,30.64,30.94,30.9,30.68,30.93,30.69,30.72,30.65,30.37,29.76,29.09,29.81,29.62,29.93,29.93,30.43,30.66,30.71,31.04,30.74,30.9,30.85,30.75,30.77,30.54,30.23,29.87,29.62,35.49,29.64,30.06,30.84,31.18,30.78,30.62,30.92,31.01,30.88,30.81,30.67,30.55,30.23,29.64,29.81,29.78,30.33,30.57,30.69,30.8,30.88,30.6,30.75,30.94,30.59,30.88,30.39,30.49,30.11,29.52,29.95,30.17,30.3,30.44,30.99,30.88,30.96,30.81,30.81,31.08,30.77,30.9,30.57,30.3,29.76,30.27,29.91,30.17,30.18,30.9,30.58,30.61,30.92,30.76,30.9,30.75,30.74,30.51,30.41,29.61,29.88,29.77,29.96,30.06,30.25,30.69,31.08,30.9,30.97,30.99,31.24,31.12,30.7,30.79,30.08,29.47,29.53,29.51,29.43,30.06,30.62,30.84,30.9,31,31.07,30.92,31.08,31.08,30.56,30.58,29.66,28.57,28.86
24.82,24.1,25.07,24.41,28.8,30.54,30.8,30.8,30.57,30.48,30.52,30.5,30.47,30.34,29.91,29.09,26.25,24.76,25.74,27.77,29.22,30.5,30.71,30.66,30.64,30.89,30.73,30.59,30.66,30.77,29.91,29.46,27.91,29.51,28.38,27.54,28.38,30.64,30.64,30.5,30.69,30.69,30.88,30.93,30.65,30.6,30.45,29.51,27.9,28.97,28.67,28.65,29,30.27,30.71,30.71,30.92,30.6,31.03,30.79,30.7,30.55,30.22,29.64,29.29,28.58,28,29.26,29.93,30.25,30.69,30.77,30.67,30.73,30.66,30.88,30.94,30.83,30.56,30.18,29.05,30.1,29.06,30.26,29.87,30.66,30.62,30.78,31.07,30.74,30.71,30.57,30.85,30.71,30.32,29.46,29.79,29.48,29.36,27.95,29.69,30.43,30.76,30.76,30.57,30.62,30.89,30.73,30.73,30.66,30.72,29.11,30.22,29.37,29.52,29.55,30.23,30.45,30.71,30.67,31.04,30.63,30.57,30.8,30.79,30.71,30.26,29.18,29.2,30.18,29.15,30.15,30.54,30.82,30.79,30.83,30.96,30.9,30.79,30.95,30.8,30.7,30.17,30.07,30.12,30.05,30.06,29.89,30.7,30.95,30.61,30.9,30.89,30.74,30.94,30.93,30.81,30.53,30.3,29.69,28.94,29.06,30.04,30.46,30.63,30.78,30.81,31.02,31.14,31.09,30.95,30.66,30.62,30.2,30.51,30.19,29.6,30.61,30.15,30.47,30.78,30.86,31.02,31.11,31.12,31.16,30.98,30.97,30.57,29.93,30.36,30.42
